43.045303 43.919203 44.219307 45.394524 48.119359 50.175523 47.392664 43.857760 42.206551 41.764112 42.871516 46.058907 47.392664 47.392664 47.392664 47.392664 47.392664 45.336540 34.735833 30.441951 28.526013 30.556018 32.989521 42.082999 47.392664 47.392664 47.392664 46.619091 37.912723 33.057115 32.048544 34.117997 38.382198 47.392664 47.392664 47.392664 47.392664 47.392664 47.392664 47.392664 48.559156 44.590621 41.101599 40.084970 38.751506 38.924277 40.257742 41.644577 45.457255 47.392664 47.392664 47.392664 47.392664 47.392664 38.860423 32.959820 27.811039 25.264898 25.222385 26.860432 30.257881 35.242096 44.378584 47.392664 47.392664 47.392664 47.392664 47.392664 47.392664 46.542070 44.027189 43.464606 43.960719 46.475600 49.084859 47.392664 47.392664 47.392664 47.392664 47.392664 47.392664 47.392664 47.392664 47.392664 40.207630 35.160556 31.764569 29.280073 28.196790 28.196790 29.933175 32.049053 37.145321 43.507096 47.392664 47.392664 47.392664 47.392664 47.392664 47.392664 44.519274 39.974903 37.426162 37.426162 39.886933 43.987835 47.392664 47.392664 47.392664 47.392664 43.643923 34.736312 31.498999 27.171885 25.366721 25.495162 28.021261 32.357095 38.486141 47.392664 47.392664 47.392664 47.392664 47.392664 47.392664 47.392664 47.392664 47.392664 45.261649 43.502052 43.502052 45.316826 47.962298 47.392664 47.392664 47.392664 47.392664 47.392664 44.686289 41.575552 40.321921 41.614919 44.220764 47.392664 47.392664 47.392664 47.392664 47.392664 44.228481 40.374262 36.729681 35.395130 35.965581 37.098667 40.983258 44.939526 45.498410 45.897618 43.803749 43.045303
43.089122 44.169232 45.328258 47.651468 51.289051 50.690979 48.041716 44.529194 43.062999 42.625364 43.710409 46.691636 48.041716 48.041716 48.041716 48.041716 48.041716 46.017107 35.514063 31.855355 29.967269 32.242822 33.983269 42.887981 48.041716 48.041716 48.041716 47.665490 39.166106 34.262586 33.319432 35.374150 39.296379 48.041716 48.041716 48.041716 48.041716 48.041716 48.041716 48.041716 49.168643 45.313927 42.014811 41.066148 39.732684 39.907389 41.240855 42.489862 46.302540 48.041716 48.041716 48.041716 48.041716 48.041716 39.840347 34.396524 29.302643 26.802359 26.802359 28.419693 31.679018 36.268492 45.441734 48.041716 48.041716 48.041716 48.041716 48.041716 48.041716 47.231802 44.716921 44.278595 44.842542 47.357423 48.750622 48.041716 48.041716 48.041716 48.041716 48.041716 48.041716 48.041716 48.041716 48.041716 40.973567 36.163487 33.096908 30.691850 29.651869 29.651869 31.274054 33.108152 38.204419 44.447882 48.041716 48.041716 48.041716 48.041716 48.041716 48.041716 45.369442 41.020055 38.493703 38.493703 40.957476 44.780930 48.041716 48.041716 48.041716 48.041716 44.198280 35.385969 33.151911 28.727073 26.940634 27.056058 29.483711 33.734064 39.452682 48.041716 48.041716 48.041716 48.041716 48.041716 48.041716 48.041716 48.041716 48.041716 46.069957 44.314469 44.314469 46.076857 48.939999 48.041716 48.041716 48.041716 48.041716 48.041716 45.540148 42.501232 41.267871 42.552849 44.928984 48.041716 48.041716 48.041716 48.041716 48.041716 45.019971 41.491065 37.827003 36.492452 37.110776 38.076754 41.961344 45.808400 47.788382 48.526331 44.833783 43.089122
44.119156 45.261993 47.444379 51.280248 54.216011 51.206436 48.690768 45.200629 43.919446 43.486617 44.549302 47.324364 48.690768 48.690768 48.690768 48.690768 48.690768 46.697675 36.302348 33.268760 31.408524 33.929627 34.977017 43.692963 48.690768 48.690768 48.690768 48.711889 40.419490 35.468057 34.613762 36.630303 40.210561 48.690768 48.690768 48.690768 48.690768 48.690768 48.690768 48.690768 49.280154 46.037232 42.928022 42.047326 40.713862 40.890501 42.223967 43.335147 47.147826 48.690768 48.690768 48.690768 48.690768 48.690768 40.820271 35.643645 30.794246 28.382332 28.382332 29.978953 33.100155 37.294889 46.504884 48.690768 48.690768 48.690768 48.690768 48.690768 48.690768 47.921535 45.406654 45.092585 45.724365 48.350711 51.040693 48.690768 48.690768 48.690768 48.690768 48.690768 48.690768 48.690768 48.690768 48.690768 41.739503 37.166418 34.400991 32.103626 31.106948 31.106948 32.614933 34.400991 39.263518 45.388668 48.690768 48.690768 48.690768 48.690768 48.690768 48.690768 46.219610 41.994766 39.561245 39.561245 41.994766 45.574025 48.690768 48.690768 48.690768 48.690768 44.752638 36.035626 34.804824 30.282261 28.514547 28.616955 30.946160 35.111033 40.419223 48.690768 48.690768 48.690768 48.690768 48.690768 48.690768 48.690768 48.690768 48.690768 46.878265 45.126886 45.126886 46.836887 49.991265 48.690768 48.690768 48.690768 48.690768 48.690768 46.394007 43.426912 42.213821 43.490779 45.637205 48.690768 48.690768 48.690768 48.690768 48.690768 45.811461 42.607868 38.924325 37.589774 38.255971 39.117978 42.939431 46.824021 50.759527 49.042680 46.604733 44.119156
45.195727 47.378113 50.510776 54.179313 54.731468 51.721893 49.339819 45.872063 44.775894 44.347869 45.388195 47.957093 49.339819 49.339819 49.339819 49.339819 49.339819 47.378242 37.519275 34.682164 32.849779 35.616432 35.970765 44.497946 49.339819 49.339819 49.339819 49.758288 41.672874 36.702986 35.908092 37.886455 41.124742 49.339819 49.339819 49.339819 49.339819 49.339819 49.339819 49.339819 49.966961 46.760537 43.841233 43.028505 41.695040 41.873614 43.207080 44.180433 47.993111 49.339819 49.339819 49.339819 49.339819 49.339819 41.800195 36.890766 32.285850 29.962306 29.962306 31.538213 34.521292 38.321286 47.568034 49.339819 49.339819 49.339819 49.339819 49.339819 49.339819 48.611267 46.096386 45.906575 46.606188 49.417805 52.271478 49.542540 49.339819 49.339819 49.339819 49.339819 49.339819 49.339819 49.339819 49.339819 42.505440 38.169350 35.705074 33.515403 32.562028 32.562028 33.955812 35.705074 40.322616 46.329455 49.339819 49.339819 49.339819 49.339819 49.339819 49.339819 47.069778 42.950757 40.628786 40.628786 42.950757 46.367120 49.339819 49.339819 49.339819 49.339819 45.306996 37.065852 36.457736 31.837449 30.088459 30.177851 32.408610 36.488003 41.385764 49.339819 49.339819 49.339819 49.339819 49.339819 49.339819 49.339819 49.339819 49.339819 47.686573 45.939303 45.939303 47.596918 51.421453 49.339819 49.339819 49.339819 49.339819 49.339819 47.247866 44.352592 43.159771 44.428709 46.345425 49.339819 49.339819 49.339819 49.339819 49.339819 46.602951 43.724670 40.021647 38.687096 39.401165 40.205838 43.917518 47.802108 51.628401 51.155780 49.050663 45.195727
47.311848 50.042885 54.675494 58.256499 55.246924 52.237349 49.988871 46.543498 45.632341 45.209122 46.227089 48.589821 49.988871 49.988871 49.988871 49.988871 49.988871 48.058810 38.736201 36.095569 34.291035 37.303236 36.964512 45.302928 49.988871 49.988871 49.988871 50.804686 42.926257 37.942076 37.202422 39.142608 42.038923 49.988871 49.988871 49.988871 49.988871 49.988871 49.988871 50.093625 50.653768 47.483842 44.754444 44.009683 42.676219 42.856726 44.190192 45.025718 48.838396 49.988871 49.988871 49.988871 49.988871 49.988871 42.780120 38.137887 33.796030 31.542279 31.542279 33.097474 35.942429 39.347682 48.631184 49.988871 49.988871 49.988871 49.988871 49.988871 49.988871 49.300999 46.786118 46.720564 47.488011 50.484900 53.089280 51.834401 49.988871 49.988871 49.988871 49.988871 49.988871 49.988871 49.988871 49.988871 43.271377 39.172281 37.009157 34.927180 34.017107 34.017107 35.296691 37.009157 41.381715 47.270241 49.988871 49.988871 49.988871 49.988871 49.988871 49.988871 47.919946 43.906748 41.696328 41.696328 43.906748 47.160215 49.988871 49.988871 49.988871 49.988871 45.861354 38.457246 38.110649 33.392637 31.662372 31.738748 33.871060 37.864972 42.352306 49.988871 49.988871 49.988871 49.988871 49.988871 49.988871 49.988871 49.988871 49.988871 48.494881 46.751721 46.751721 48.356948 52.600727 49.988871 49.988871 49.988871 49.988871 49.988871 48.101724 45.278272 44.105720 45.319143 47.053645 49.988871 49.988871 49.988871 49.988871 49.988871 47.394442 44.841473 41.118969 39.800283 40.546360 41.293699 44.895604 48.780195 52.664785 55.094994 52.377861 47.311848
49.574995 53.370083 57.069575 58.771956 55.762381 52.752806 50.637923 47.214932 46.488789 46.070374 47.065982 49.222550 50.637923 50.637923 50.637923 50.637923 50.637923 48.739378 39.953128 37.508973 35.732290 38.990041 37.958260 46.107910 50.637923 50.637923 50.637923 51.851085 44.179641 39.181166 38.496752 40.398761 42.953105 50.637923 50.637923 50.637923 50.637923 50.637923 50.637923 51.191862 51.340575 48.207147 45.667656 44.990861 43.657397 43.839838 45.173304 45.871003 49.683681 50.637923 50.637923 50.637923 50.637923 50.637923 43.760044 39.385008 35.312443 33.122253 33.122253 34.656734 37.363566 40.374079 49.694334 50.637923 50.637923 50.637923 50.637923 50.637923 50.637923 49.990731 47.534554 47.534554 48.369834 51.551994 53.589835 54.126263 50.637923 50.637923 50.637923 50.637923 50.637923 50.637923 50.637923 50.637923 44.037313 40.175213 38.313241 36.338957 35.472186 35.472186 36.637570 38.313241 42.440814 48.211027 50.637923 50.637923 50.637923 50.637923 50.637923 50.637923 48.770115 44.862739 42.763869 42.763869 44.862739 47.953310 50.637923 50.637923 50.637923 50.637923 46.415711 39.848640 39.587881 34.947825 33.236285 33.299644 35.333510 39.241942 43.318847 50.637923 50.637923 50.637923 50.637923 50.637923 50.637923 50.637923 50.637923 50.637923 49.303189 47.564138 47.564138 49.116978 53.499928 50.637923 50.637923 50.637923 50.637923 50.637923 48.955583 46.203856 45.051670 46.203856 47.761865 50.637923 50.637923 50.637923 50.637923 50.637923 48.185932 45.958275 42.216292 40.963510 41.691554 42.381559 45.873691 49.758281 53.642872 57.448402 53.928438 49.574995
52.902193 58.070740 62.296988 59.287413 56.277837 53.268262 51.286975 47.904875 47.345236 46.931627 47.904875 49.855278 51.286975 51.286975 51.286975 51.286975 51.286975 49.419945 41.170054 38.922378 37.173546 40.676846 38.952008 46.912892 51.286975 51.286975 51.286975 52.897484 45.433025 40.420255 39.791082 41.654914 43.867286 51.286975 51.286975 51.286975 51.286975 51.286975 51.286975 52.290100 52.027382 48.930453 46.580867 45.972039 44.638575 44.822951 46.156417 46.716288 50.528967 51.286975 51.286975 51.286975 51.286975 51.286975 44.739968 40.632129 36.828855 34.702226 34.702226 36.215994 38.784703 41.400475 50.757483 51.286975 51.286975 51.286975 51.286975 51.286975 51.286975 50.680464 48.348543 48.348543 49.251657 52.619089 53.690056 56.284756 51.286975 51.286975 51.286975 51.286975 51.286975 51.286975 51.286975 51.286975 44.931505 41.178144 39.617324 37.750734 36.927266 36.927266 37.978449 39.617324 43.499912 49.151813 51.286975 51.286975 51.286975 51.286975 51.286975 51.286975 49.620283 45.818730 43.831411 43.831411 45.818730 48.746405 51.286975 51.286975 51.286975 51.286975 46.970069 41.240034 40.991579 36.503013 34.810198 34.860541 36.795959 40.618911 44.285388 51.286975 51.286975 51.286975 51.286975 51.286975 51.286975 51.286975 51.286975 51.286975 50.111497 48.376555 48.376555 49.877009 54.399128 51.286975 51.286975 51.286975 51.286975 51.286975 49.809442 47.088569 45.997620 47.088569 48.470085 51.286975 51.286975 51.286975 51.286975 51.286975 48.977422 47.075078 43.313614 42.126737 42.836749 43.469420 46.851777 50.736368 54.620958 58.505549 57.829527 52.902193
56.701097 59.959838 62.812444 59.802869 56.793294 53.783719 51.936027 48.743768 48.201684 47.792879 48.743768 50.488007 51.936027 51.936027 51.936027 51.936027 51.936027 50.100513 42.386981 40.335782 38.614801 42.363650 39.945756 47.717874 51.936027 51.936027 51.936027 53.943882 46.686408 41.659345 41.085412 42.911067 44.781467 51.936027 51.936027 51.936027 51.936027 51.936027 51.936027 53.388337 52.714189 49.653758 47.494078 46.953218 45.619753 45.806063 47.139529 47.561574 51.374252 51.936027 51.936027 51.936027 51.936027 51.936027 45.719892 41.879250 38.345267 36.282200 36.282200 37.775255 40.205840 42.426872 51.820633 51.936027 51.936027 51.936027 51.936027 51.936027 51.936027 51.370196 49.162533 49.162533 50.133479 53.686184 53.136114 57.452748 51.936027 51.936027 51.936027 51.936027 51.936027 51.936027 51.936027 51.936027 45.937297 42.181076 40.921407 39.162510 38.382345 38.382345 39.319328 40.921407 44.559011 50.092599 51.936027 51.936027 51.936027 51.936027 51.936027 51.936027 50.470451 46.774721 44.898952 44.898952 46.774721 49.539501 51.936027 51.936027 51.936027 51.936027 47.524427 42.631427 42.395277 38.058201 36.384111 36.421438 38.258409 41.958928 45.251929 51.936027 51.936027 51.936027 51.936027 51.936027 51.936027 51.936027 51.936027 51.936027 50.919805 49.188972 49.188972 50.637039 55.298328 51.936027 51.936027 51.936027 51.936027 51.936027 50.663301 47.973283 46.943569 47.973283 49.178305 51.936027 51.936027 51.936027 51.936027 51.936027 49.768912 48.191881 44.410936 43.289964 43.981944 44.557280 47.829864 51.714454 55.599045 59.483635 62.864221 56.701097
61.465986 66.261405 63.327901 60.318326 57.308751 54.299176 52.585079 49.582661 49.058131 48.669276 49.582661 51.120735 52.585079 52.585079 52.585079 52.585079 52.585079 50.781080 43.603908 41.749187 40.079718 44.050455 41.699928 48.522857 52.585079 52.585079 52.618609 54.990281 48.000031 42.898435 42.379742 44.167219 45.695648 52.585079 52.585079 52.585079 52.585079 52.585079 52.585079 54.486574 53.400997 50.377063 48.407290 47.934396 46.600932 46.789176 48.122641 48.407290 52.219537 52.585079 52.585079 52.585079 52.585079 52.585079 46.699817 43.126371 39.861679 37.862173 37.862173 39.334515 41.626977 43.453268 52.585079 52.585079 52.585079 52.585079 52.585079 52.585079 52.585079 52.059928 49.976522 49.976522 51.015302 54.753278 52.418240 57.726468 54.085225 52.585079 52.585079 52.585079 52.585079 52.585079 52.585079 52.585079 46.943089 43.184007 42.225490 40.574287 39.837425 39.837425 40.660207 42.225490 45.618109 51.033385 52.585079 52.585079 52.585079 52.585079 52.585079 52.585079 51.207883 47.730712 45.966494 45.966494 47.730712 50.332596 52.585079 52.585079 52.585079 52.585079 48.139180 44.022821 43.798975 39.613389 37.958024 37.982334 39.720859 43.201311 46.218470 52.585079 52.585079 52.585079 52.585079 52.585079 52.585079 52.585079 52.585079 52.585079 51.728113 50.001389 50.001389 51.397070 56.197529 52.585079 52.585079 52.585079 52.585079 52.585079 51.517160 48.857996 47.889519 48.857996 49.886525 52.585079 52.585079 52.585079 52.585079 52.585079 50.560403 49.186883 45.508258 44.453191 45.127138 45.645141 48.807950 52.692541 56.577131 60.461722 64.346312 61.465986
62.850100 66.852933 63.843357 60.833782 57.824207 54.814632 53.234131 50.421554 49.914579 49.565922 50.421554 51.753464 53.234131 53.234131 53.234131 53.234131 53.234131 51.461648 44.820834 43.162591 41.670001 45.737260 43.605110 49.327839 53.234131 53.234131 53.356438 56.036680 49.400736 44.137525 43.674072 45.423372 46.609830 53.234131 53.234131 53.234131 53.234131 53.234131 53.234131 54.170053 54.087804 51.100368 49.320501 48.915574 47.592458 47.772288 49.105754 49.320501 53.064822 53.234131 53.234131 53.234131 53.234131 53.234131 47.679741 44.373492 41.378091 39.442147 39.442147 40.893775 43.048114 44.479665 53.234131 53.234131 53.234131 53.234131 53.234131 53.234131 53.234131 52.749660 50.790512 50.790512 51.897125 55.820373 54.896425 56.914369 56.377086 53.234131 53.234131 53.234131 53.234131 53.234131 53.234131 53.234131 47.948881 44.186939 43.529574 41.986064 41.292504 41.292504 42.001086 43.529574 46.677208 51.974171 53.234131 53.234131 53.234131 53.234131 53.234131 53.234131 51.944014 48.686703 47.034036 47.034036 48.686703 51.125691 53.234131 53.234131 53.234131 53.234131 48.788837 45.414215 45.202673 41.168577 39.531937 39.543231 41.183309 44.443694 47.185011 53.234131 53.234131 53.234131 53.234131 53.234131 53.234131 53.234131 53.234131 53.234131 52.536421 50.813807 50.813807 52.157100 57.096729 53.234131 53.234131 53.234131 53.234131 53.234131 52.371019 49.742710 48.835469 49.742710 50.594745 53.234131 53.234131 53.234131 53.234131 53.234131 51.351893 50.050801 46.605580 45.616418 46.272333 46.733001 49.786037 53.670627 57.555218 61.439808 65.324399 62.850100
69.972616 67.368389 64.358814 61.349239 58.339664 55.330089 53.883183 51.260448 50.771026 50.462568 51.260448 52.386192 53.883183 53.883183 53.883183 53.883183 53.883183 52.142216 46.037761 44.575996 43.260285 47.424064 45.510292 50.132821 53.883183 53.883183 54.094267 57.083078 50.801440 45.376614 44.968402 46.679525 47.524011 53.883183 53.883183 53.883183 53.883183 53.883183 54.081200 53.708721 54.774611 51.823673 50.233712 49.896752 48.622307 48.755400 50.088866 50.233712 53.883183 53.883183 53.883183 53.883183 53.883183 53.883183 48.659665 45.620613 42.894504 41.022120 41.022120 42.453035 44.469251 45.620613 53.883183 53.883183 53.883183 53.883183 53.883183 53.883183 53.883183 53.439393 51.604501 51.604501 52.778948 56.887467 56.599102 53.686552 58.668947 53.883183 53.883183 53.883183 53.883183 53.883183 53.883183 53.883183 48.954673 45.189870 44.833657 43.397841 42.747583 42.747583 43.341965 44.833657 47.736306 52.914957 53.883183 53.883183 53.883183 53.883183 53.883183 53.883183 52.680145 49.642694 48.101577 48.101577 49.642694 51.918786 53.883183 53.883183 53.883183 53.883183 49.438495 46.805609 46.606371 42.805966 41.105850 41.105850 42.645758 45.686076 48.151552 53.883183 53.883183 53.883183 53.883183 53.883183 53.883183 53.883183 53.883183 53.883183 53.344729 51.626224 51.626224 52.917131 57.995930 54.068110 53.883183 53.883183 53.883183 53.883183 53.260955 50.627423 49.781418 50.627423 51.302965 53.883183 53.883183 53.883183 53.883183 53.883183 52.143383 50.914719 47.702902 46.779645 47.417527 47.820862 50.764124 54.648714 58.533304 62.417895 66.302485 69.972616
69.850986 67.883846 64.874271 61.864696 58.855120 55.845545 54.532235 52.099341 51.627474 51.359214 52.099341 53.018921 54.532235 54.532235 54.532235 54.532235 54.532235 52.822783 47.254688 45.989400 44.850569 49.110869 47.415474 50.937803 54.532235 54.532235 54.832097 58.129477 52.202145 46.615704 46.262732 47.935678 48.438192 54.532235 54.532235 54.532235 54.532235 54.532235 55.179437 57.755055 55.461418 52.546979 51.146924 50.877931 49.652157 49.738513 51.071978 51.146924 54.532235 54.532235 54.532235 54.532235 54.532235 54.532235 49.639589 46.867734 44.410916 42.602094 42.602094 44.012296 45.890388 46.867734 54.532235 54.532235 54.532235 54.532235 54.532235 54.532235 54.532235 54.129125 52.418491 52.418491 53.660771 57.954562 58.064848 58.360985 60.960809 54.532235 54.532235 54.532235 54.532235 54.532235 54.532235 54.532235 49.960465 46.192801 46.137740 44.809618 44.202663 44.202663 44.682844 46.137740 48.795405 53.855743 54.532235 54.532235 54.532235 54.532235 54.532235 54.532235 53.416277 50.598685 49.169119 49.169119 50.598685 52.711881 54.532235 54.532235 54.532235 54.532235 50.088152 48.197002 48.010069 44.458879 42.679763 42.679763 44.108208 46.928459 49.118093 54.532235 54.532235 54.532235 54.532235 54.532235 54.532235 54.532235 54.532235 54.532235 54.153037 52.438641 52.438641 53.677161 58.895130 55.045810 54.532235 54.532235 54.532235 54.532235 54.180451 51.512136 50.727368 51.512136 52.011185 54.532235 54.532235 54.532235 54.532235 54.532235 52.934873 51.778637 48.800225 47.942872 48.562722 48.908722 51.742210 55.626801 59.511391 63.395981 67.280572 69.850986
66.493825 68.399302 65.389727 62.380152 59.370577 56.361002 55.181286 52.938234 52.483921 52.255860 52.938234 53.651649 55.181286 55.181286 55.181286 55.181286 55.181286 53.503351 48.471614 47.402805 46.440852 50.797673 49.320656 51.742785 55.181286 55.181286 55.569926 59.175876 53.602849 47.854794 47.557062 49.191831 49.382251 55.181286 55.181286 55.181286 55.181286 55.181286 56.277674 59.758078 56.148225 53.270284 52.060135 51.859109 50.682007 50.721625 52.055091 52.060135 55.181286 55.181286 55.181286 55.181286 55.181286 55.181286 50.619514 48.114855 45.927328 44.182067 44.182067 45.504332 47.311525 48.114855 55.181286 55.181286 55.181286 55.181286 55.181286 55.181286 55.181286 54.818857 53.232480 53.232480 54.542594 59.021656 59.415173 60.864098 63.200417 56.336048 55.181286 55.181286 55.181286 55.181286 55.181286 55.181286 50.966257 47.441823 47.441823 46.221395 45.657742 45.657742 46.023723 47.441823 49.854503 54.796529 55.181286 55.181286 55.181286 55.181286 55.181286 55.181286 54.152408 51.554676 50.236660 50.236660 51.554676 53.504976 55.181286 55.181286 55.181286 55.181286 50.737809 49.588396 49.413767 46.111791 44.253675 44.253675 45.570658 48.170841 50.084635 55.181286 55.181286 55.181286 55.181286 55.181286 55.181286 55.181286 55.181286 55.181286 54.884846 53.251058 53.251058 54.437191 59.794331 56.023511 55.181286 55.181286 55.181286 55.181286 55.099948 52.396850 51.673318 52.396850 52.719405 55.181286 55.181286 55.181286 55.181286 55.181286 53.726363 52.642555 49.897547 49.106099 49.707916 49.996583 52.720297 56.604887 60.489478 64.374068 68.258658 66.493825
68.724717 68.914759 65.905184 62.895609 59.886034 56.876459 55.830338 53.777127 53.340369 53.152506 53.777127 54.284378 55.830338 55.830338 55.830338 55.830338 55.830338 54.183918 49.688541 48.816209 48.031136 52.484478 51.225838 52.547768 55.830338 55.830338 56.307755 60.222275 55.003554 49.093884 48.851392 50.447983 50.522105 55.830338 55.830338 55.830338 55.830338 55.830338 57.375911 61.342195 56.835032 53.993589 52.973346 52.840287 51.711856 51.711856 52.973346 52.973346 55.830338 55.830338 55.830338 55.830338 55.830338 55.830338 51.599438 49.361976 47.443740 45.762041 45.762041 46.972396 48.732662 49.361976 55.830338 55.830338 55.830338 55.830338 55.830338 55.830338 55.830338 55.508589 54.046470 54.046470 55.424417 60.088751 60.667793 62.757754 64.803149 58.627909 55.830338 55.830338 55.830338 55.830338 55.830338 55.830338 51.972049 48.745906 48.745906 47.633171 47.112821 47.112821 47.364602 48.745906 50.913602 55.737316 55.830338 55.830338 55.830338 55.830338 55.830338 55.830338 54.888539 52.510667 51.304202 51.304202 52.510667 54.298071 55.830338 55.830338 55.830338 55.830338 51.387466 50.979790 50.817465 47.764704 45.827588 45.827588 47.033108 49.413224 51.051176 55.830338 55.830338 55.830338 55.830338 55.830338 55.830338 55.830338 55.830338 55.830338 55.558987 54.063475 54.063475 55.197222 60.693531 57.001212 55.830338 55.830338 55.830338 55.830338 55.830338 53.281563 52.619267 53.281563 53.427625 55.830338 55.830338 55.830338 55.830338 55.830338 54.517854 53.506473 50.994869 50.269325 50.853111 51.084443 53.698383 57.582974 61.467564 65.352155 69.134366 68.724717
62.850100 66.511149 66.420640 63.411065 60.401490 57.391915 56.479390 54.616020 54.196816 54.049152 54.616020 54.917106 56.479390 56.479390 56.479390 56.479390 56.479390 54.864486 50.905467 50.229614 49.621420 54.171283 53.131020 53.352750 56.479390 56.479390 57.045584 61.268673 56.227431 50.332973 50.145722 51.661960 51.661960 56.479390 56.479390 56.479390 56.479390 56.479390 58.474148 62.659101 57.521839 54.716894 53.886557 53.821465 52.741706 52.741706 53.886557 53.886557 56.479390 56.479390 56.479390 56.479390 56.479390 56.479390 52.579362 50.609097 48.960152 47.342014 47.342014 48.440459 50.153799 50.609097 56.479390 56.479390 56.479390 56.479390 56.479390 56.479390 56.479390 56.198321 54.860460 54.860460 56.383326 61.155845 61.896878 64.344843 65.820637 60.919771 56.479390 56.479390 56.479390 56.479390 56.479390 56.479390 52.977841 50.049990 50.049990 49.044948 48.567901 48.567901 48.705481 50.049990 51.972701 56.479390 56.479390 56.479390 56.479390 56.479390 56.479390 56.479390 55.624670 53.466658 52.371743 52.371743 53.466658 55.091167 56.479390 56.479390 56.479390 56.479390 52.037124 52.371184 52.221163 49.417616 47.401501 47.401501 48.495558 50.655607 52.017717 56.479390 56.479390 56.479390 56.479390 56.479390 56.479390 56.479390 56.479390 56.479390 56.233129 54.875893 54.875893 55.957252 61.592732 57.978913 56.479390 56.479390 56.479390 56.479390 56.479390 54.166276 53.565217 54.166276 54.166276 56.479390 56.479390 56.479390 56.479390 56.479390 55.309344 54.370391 52.092191 51.432552 51.998306 52.172304 54.676470 58.561060 62.445651 66.330241 62.850100 62.850100
66.976651 67.650188 66.936097 63.926522 60.916947 57.907372 57.128442 55.454914 55.053264 54.945798 55.454914 55.549834 57.128442 57.128442 57.128442 57.128442 57.128442 55.545053 52.122394 51.643018 51.211703 55.858087 55.036202 54.157732 57.128442 57.128442 57.783413 62.315072 57.273829 51.572063 51.440052 52.801815 52.801815 57.128442 57.128442 57.128442 57.128442 57.128442 59.572385 63.782384 58.208646 55.440200 54.799769 54.799769 53.771555 53.771555 54.799769 54.799769 57.128442 57.128442 57.128442 57.128442 57.128442 57.128442 53.559286 51.856218 50.476564 48.921988 48.921988 49.908522 51.574936 51.856218 57.128442 57.128442 57.128442 57.128442 57.128442 57.128442 57.128442 56.888054 55.674449 55.674449 57.450420 62.222940 63.081419 65.720641 66.299366 63.211632 57.128442 57.128442 57.128442 57.128442 57.128442 57.128442 53.983633 51.354073 51.354073 50.456725 50.022980 50.022980 50.046360 51.354073 53.031799 57.128442 57.128442 57.128442 57.128442 57.128442 57.128442 57.128442 56.360802 54.422649 53.439285 53.439285 54.422649 55.884262 57.128442 57.128442 57.128442 57.128442 52.686781 53.762577 53.624861 51.070529 48.975414 48.975414 49.958007 51.897989 52.984258 57.128442 57.128442 57.128442 57.128442 57.128442 57.128442 57.128442 57.128442 57.128442 56.907270 55.688310 55.688310 56.717283 62.491932 58.956613 57.128442 57.128442 57.128442 57.128442 57.128442 55.050990 54.511167 55.050990 55.050990 57.128442 57.128442 57.128442 57.128442 57.128442 56.100834 55.234309 53.189513 52.595779 53.143500 53.260164 55.654556 59.539147 63.423737 67.308328 66.556701 69.584160
71.103201 62.850100 67.399933 64.441979 61.432403 58.422828 57.777494 56.293807 55.909711 55.842444 56.293807 56.293807 57.777494 57.777494 57.777494 57.777494 57.777494 56.225621 53.339321 53.056423 52.801987 57.544892 56.941384 54.987386 57.777494 57.777494 58.521242 63.361471 58.320228 52.811153 52.734382 53.941669 53.941669 57.777494 57.777494 57.777494 57.777494 58.068774 60.670622 64.758343 58.895453 56.163505 55.712980 55.712980 54.801405 54.801405 55.712980 55.712980 57.777494 57.777494 57.777494 57.777494 57.777494 57.777494 54.539211 53.103339 51.992977 50.501961 50.501961 51.376585 52.996074 53.103339 57.777494 57.777494 57.777494 57.777494 57.777494 57.777494 57.777494 57.581579 56.488439 56.488439 58.517515 63.290034 64.225734 66.946338 66.266588 65.503494 58.586871 57.777494 57.777494 57.777494 57.777494 57.777494 54.989425 52.658156 52.658156 51.868502 51.478060 51.478060 51.478060 52.658156 54.090898 57.777494 57.777494 57.777494 57.777494 57.777494 57.777494 57.777494 57.096933 55.378639 54.506826 54.506826 55.378639 56.677357 57.777494 57.777494 57.777494 57.777494 53.336438 55.153971 55.028559 52.723441 50.549327 50.549327 51.420457 53.140372 53.950799 57.777494 57.777494 57.777494 57.777494 57.777494 57.777494 57.777494 57.777494 57.777494 57.581411 56.500727 56.500727 57.477313 63.391132 59.934314 57.777494 57.777494 57.777494 57.777494 57.777494 55.935703 55.457116 55.935703 55.935703 57.777494 57.777494 57.777494 57.777494 57.777494 56.892324 56.098227 54.286835 53.759006 54.288695 54.348025 56.632643 60.517233 64.401824 66.217421 65.681823 71.103201
66.139015 62.850100 65.852378 64.957435 61.947860 58.938285 58.426546 57.132700 56.766159 56.739090 57.132700 57.132700 58.426546 58.426546 58.426546 58.426546 58.426546 56.906189 54.556247 54.469827 54.392270 59.231697 58.846566 55.851864 58.426546 58.426546 59.259071 64.407869 59.366627 54.050243 54.028712 55.081524 55.081524 58.426546 58.426546 58.426546 58.426546 59.167011 61.768859 65.619840 59.582260 56.886810 56.626191 56.626191 55.831254 55.831254 56.626191 56.626191 58.426546 58.426546 58.426546 58.426546 58.426546 58.426546 55.519135 54.350460 53.509389 52.081934 52.081934 52.844649 54.350460 54.350460 58.426546 58.426546 58.426546 58.426546 58.426546 58.426546 58.426546 58.279609 57.302428 57.302428 59.584609 64.082027 65.370050 67.976787 65.620945 67.795355 60.878733 58.426546 58.426546 58.426546 58.426546 58.426546 55.995217 53.962239 53.962239 53.280279 52.933139 52.933139 52.933139 53.962239 55.149996 58.426546 58.426546 58.426546 58.426546 58.426546 58.426546 58.426546 57.833064 56.334630 55.574368 55.574368 56.334630 57.470452 58.426546 58.426546 58.426546 58.426546 54.482474 56.545365 56.432257 54.376354 52.123240 52.123240 52.882907 54.382754 54.917340 58.426546 58.426546 58.426546 58.426546 58.426546 58.426546 58.426546 58.426546 58.426546 58.255552 57.313144 57.313144 58.237344 64.290333 60.912015 58.426546 58.426546 58.426546 58.426546 58.426546 56.820416 56.403066 56.820416 56.820416 58.426546 58.426546 58.426546 58.426546 58.426546 57.683815 56.962145 55.384157 54.922233 55.433889 55.435885 57.610729 61.495320 65.379910 65.448043 67.274824 66.139015
69.578722 68.075088 62.850100 65.472892 62.463317 59.453742 59.075598 57.971593 57.635737 57.635737 57.971593 57.971593 59.075598 59.075598 59.075598 59.075598 59.075598 57.586756 55.773174 55.773174 55.982554 60.918501 60.751748 56.716341 59.075598 59.075598 59.996900 65.454268 60.413025 55.323042 55.323042 56.221379 56.221379 59.075598 59.075598 59.075598 59.075598 60.265248 62.315961 66.385571 60.269068 57.610115 57.539403 57.539403 56.861104 56.861104 57.539403 57.539403 59.075598 59.075598 59.075598 59.075598 59.075598 59.075598 56.499059 55.597581 55.025801 53.661908 53.661908 54.312712 55.597581 55.597581 59.075598 59.075598 59.075598 59.075598 59.075598 59.075598 59.075598 58.977639 58.116418 58.116418 60.651704 64.660792 66.507788 68.920631 63.781951 70.101146 63.170594 59.075598 59.075598 59.075598 59.075598 59.075598 57.001009 55.266323 55.266323 54.692055 54.388218 54.388218 54.388218 55.266323 56.209095 59.075598 59.075598 59.075598 59.075598 59.075598 59.075598 59.075598 58.569196 57.290621 56.641909 56.641909 57.290621 58.263547 59.075598 59.075598 59.075598 59.075598 55.873868 57.936759 57.835955 55.783937 53.697153 53.697153 54.345357 55.625137 55.883881 59.075598 59.075598 59.075598 59.075598 59.075598 59.075598 59.075598 59.075598 59.075598 58.929693 58.125562 58.125562 59.036467 65.189533 61.889715 59.075598 59.075598 59.075598 59.075598 59.075598 57.705130 57.349016 57.705130 57.705130 59.075598 59.075598 59.075598 59.075598 59.075598 58.475305 57.826063 56.481480 56.085460 56.523746 56.523746 58.588816 62.473407 66.233639 65.927780 68.954357 69.578722
69.263466 66.841092 62.850100 65.122653 62.978773 59.969198 59.724650 58.810486 58.532383 58.532383 58.810486 58.810486 59.724650 59.724650 59.724650 59.724650 59.724650 58.267324 56.990101 56.990101 57.572838 62.605306 62.656930 57.580818 59.724650 59.724650 60.734729 66.411566 61.459424 56.617372 56.617372 57.361233 57.361233 59.724650 59.724650 59.724650 59.724650 61.363485 61.759852 66.993374 60.955875 58.452614 58.452614 58.452614 57.890953 57.890953 58.452614 58.452614 59.724650 59.724650 59.724650 59.724650 59.724650 59.724650 57.478983 56.844702 56.542213 55.241881 55.241881 55.780775 56.844702 56.844702 59.724650 59.724650 59.724650 59.724650 59.724650 59.724650 59.724650 59.675669 58.930407 58.930407 61.718798 65.239556 67.590753 69.759651 59.393952 71.894673 65.462455 59.724650 59.724650 59.724650 59.724650 59.724650 58.006800 56.570406 56.570406 56.103832 55.843298 55.843298 55.843298 56.570406 57.268193 59.724650 59.724650 59.724650 59.724650 59.724650 59.724650 59.724650 59.305327 58.246612 57.709451 57.709451 58.246612 59.056642 59.724650 59.724650 59.724650 59.724650 57.265262 59.328152 59.239653 57.187635 55.271066 55.271066 55.807806 56.867520 56.867520 59.724650 59.724650 59.724650 59.724650 59.724650 59.724650 59.724650 59.724650 59.724650 59.603834 58.937979 58.937979 59.913845 66.088734 62.867416 59.724650 59.724650 59.724650 59.724650 59.724650 58.589843 58.294965 58.589843 58.589843 59.724650 59.724650 59.724650 59.724650 59.724650 59.266795 58.689981 57.578802 57.248687 57.611607 57.611607 59.566903 63.451493 64.685670 64.129608 62.850100 70.459871
68.948210 67.845936 62.850100 62.850100 63.494230 60.484655 60.373701 59.649379 59.429029 59.429029 59.649379 59.649379 60.373701 60.373701 60.373701 60.373701 60.373701 58.975784 58.207027 58.207027 59.163121 64.292111 64.562112 58.445296 60.373701 60.373701 61.472558 67.252527 62.505823 57.911702 57.911702 58.501088 58.501088 60.373701 60.373701 60.373701 60.373701 62.461722 60.028107 67.530646 61.642682 59.365825 59.365825 59.365825 58.920803 58.920803 59.365825 59.365825 60.373701 60.373701 60.373701 60.373701 60.373701 60.373701 58.458908 58.091823 58.058625 56.821855 56.821855 57.248838 58.091823 58.091823 60.373701 60.373701 60.373701 60.373701 60.373701 60.373701 60.373701 60.373698 59.744397 59.744397 62.785893 65.818321 68.673718 70.468094 64.450255 73.232015 67.754317 60.837694 60.373701 60.373701 60.373701 60.373701 59.012592 57.874489 57.874489 57.515609 57.298377 57.298377 57.298377 57.874489 58.327292 60.373701 60.373701 60.373701 60.373701 60.373701 60.373701 60.373701 60.041458 59.202603 58.776992 58.776992 59.202603 59.849737 60.373701 60.373701 60.373701 60.373701 58.656656 60.719546 60.643351 58.591333 56.844979 56.844979 57.270256 58.109902 58.109902 60.373701 60.373701 60.373701 60.373701 60.373701 60.373701 60.373701 60.373701 60.373701 60.277976 59.750396 59.750396 60.813045 66.987934 63.845117 60.373701 60.373701 60.373701 60.373701 60.373701 59.474557 59.240915 59.474557 59.474557 60.373701 60.373701 60.373701 60.373701 60.373701 60.058285 59.553899 58.676124 58.411914 58.699467 58.699467 60.544989 64.429580 64.304483 66.596019 66.632846 62.850100
68.632954 66.809134 65.823184 62.850100 64.009686 61.022753 61.022753 60.488273 60.325675 60.325675 60.488273 60.488273 61.022753 61.022753 61.022753 61.022753 61.022753 59.754015 59.423954 59.423954 60.753405 66.115654 66.467294 59.351652 61.022753 61.022753 62.210387 68.093489 63.552221 59.206032 59.206032 59.640943 59.640943 61.022753 61.022753 61.022753 61.022753 63.559959 60.938350 67.949231 62.329489 60.279037 60.279037 60.279037 59.950652 59.950652 60.279037 60.279037 61.022753 61.022753 61.022753 61.022753 61.022753 61.022753 59.438832 59.338944 59.338944 58.401828 58.401828 58.716902 59.338944 59.338944 61.022753 61.022753 61.022753 61.022753 61.022753 61.022753 61.022753 61.022753 60.558386 60.558386 63.852987 66.337519 69.756683 71.117501 67.886611 74.188527 70.046178 63.129556 61.022753 61.022753 61.022753 61.022753 60.018384 59.178572 59.178572 58.927386 58.753456 58.753456 58.753456 59.178572 59.386390 61.022753 61.022753 61.022753 61.022753 61.022753 61.022753 61.022753 60.777589 60.158594 59.844534 59.844534 60.158594 60.642833 61.022753 61.022753 61.022753 61.022753 60.048049 62.110940 62.047049 59.995031 58.418891 58.418891 58.732706 59.352285 59.352285 61.022753 61.022753 61.022753 61.022753 61.022753 61.022753 61.022753 61.022753 61.022753 60.952117 60.562813 60.562813 61.712246 67.887135 64.822818 61.151622 61.022753 61.022753 61.022753 61.022753 60.359270 60.186865 60.359270 60.359270 61.022753 61.022753 61.022753 61.022753 61.022753 60.849775 60.417817 59.773446 59.575140 59.787328 59.787328 61.523076 63.923296 63.457442 62.850100 69.864360 70.872793
68.317698 65.490001 65.402932 62.850100 63.305538 61.671805 61.671805 61.327166 61.222321 61.222321 61.327166 61.327166 61.671805 61.671805 61.671805 61.671805 61.671805 60.640880 60.640880 60.640880 62.343688 68.037065 68.372476 60.407307 61.671805 61.671805 62.948217 68.934450 64.598620 60.500362 60.500362 60.780797 60.780797 61.671805 61.671805 61.671805 62.056348 64.658196 65.910953 68.231325 63.016296 61.192248 61.192248 61.192248 60.980502 60.980502 61.192248 61.192248 61.671805 61.671805 61.671805 61.671805 61.671805 61.671805 60.586065 60.586065 60.586065 59.981802 59.981802 60.184965 60.586065 60.586065 61.671805 61.671805 61.671805 61.671805 61.671805 61.671805 61.671805 61.671805 61.372376 61.372376 64.920082 66.769043 70.839648 71.617483 70.452546 74.793883 72.338040 65.421417 61.671805 61.671805 61.671805 61.671805 61.024176 60.482656 60.482656 60.339163 60.208536 60.208536 60.208536 60.482656 60.482656 61.671805 61.671805 61.671805 61.671805 61.671805 61.671805 61.671805 61.513721 61.114585 60.912075 60.912075 61.114585 61.435928 61.671805 61.671805 61.671805 61.671805 61.439443 63.502334 63.450747 61.398729 59.992804 59.992804 60.195156 60.594667 60.594667 61.671805 61.671805 61.671805 61.671805 61.671805 61.671805 61.671805 61.671805 61.671805 61.626258 61.375230 61.375230 62.611446 68.786335 65.800518 62.129323 61.671805 61.671805 61.671805 61.671805 61.243983 61.132814 61.243983 61.243983 61.671805 61.671805 61.671805 61.671805 61.671805 61.641266 61.281735 60.870768 60.738367 60.875188 60.875188 62.501162 63.542110 62.850100 62.850100 67.152731 73.538423
68.002442 66.138800 63.996730 62.850100 62.850100 62.320857 62.320857 62.166059 62.118967 62.118967 62.166059 62.166059 62.320857 62.320857 62.320857 62.320857 62.320857 61.857807 61.857807 61.857807 63.933972 69.958476 70.277658 62.312489 62.320857 62.374321 63.686046 69.775412 65.645019 61.794692 61.794692 61.920652 61.920652 62.320857 62.320857 62.320857 63.154585 65.756434 68.547584 68.439976 63.703103 62.105459 62.105459 62.105459 62.010351 62.010351 62.105459 62.105459 62.320857 62.320857 62.320857 62.320857 62.320857 62.320857 61.833186 61.833186 61.833186 61.561775 61.561775 61.653028 61.833186 61.833186 62.320857 62.320857 62.320857 62.320857 62.320857 62.320857 62.320857 62.320857 62.186365 62.186365 65.987176 67.200566 71.922613 72.064004 72.580058 75.002723 74.629901 67.713279 62.320857 62.320857 62.320857 62.320857 62.029968 61.786739 61.786739 61.750939 61.663615 61.663615 61.663615 61.786739 61.786739 62.320857 62.320857 62.320857 62.320857 62.320857 62.320857 62.249852 62.249852 62.070576 61.979617 61.979617 62.070576 62.229023 62.320857 62.320857 62.320857 62.320857 62.830837 64.893727 64.854445 62.802428 61.566717 61.566717 61.657605 61.837050 61.837050 62.320857 62.320857 62.320857 62.320857 62.320857 62.320857 62.320857 62.320857 62.320857 62.300399 62.187648 62.187648 63.510647 69.685535 66.778219 63.107023 62.320857 62.320857 62.320857 62.320857 62.128697 62.078764 62.128697 62.128697 62.320857 62.320857 62.320857 62.320857 62.320857 62.320857 62.145653 61.978470 61.901594 61.963049 61.963049 63.025138 63.160923 62.850100 69.055334 70.390251 71.992035
67.687186 67.230783 65.763291 65.292660 65.675859 64.396094 64.827292 66.030116 65.915948 65.896169 67.113594 67.113594 66.820257 66.820257 66.020294 63.818059 66.861130 66.102342 67.488743 67.009933 65.524256 71.879887 72.182840 66.680810 62.850100 66.952595 64.423875 70.616373 66.691418 66.964652 66.973977 66.179267 66.179267 66.678443 66.678443 65.219588 64.398242 66.854671 70.635376 68.392986 64.389910 65.690317 65.487489 65.111725 63.808750 65.087390 65.187452 65.187452 65.370922 65.048485 65.776429 65.274747 65.029315 66.102544 65.122074 65.544910 63.557111 64.731857 66.109675 65.167356 65.816520 65.798865 65.401048 65.401048 65.841169 64.820611 65.300759 65.980313 65.892509 64.230702 67.063791 66.371923 67.054271 67.632090 72.975287 72.361824 74.461434 74.806709 76.936678 70.005140 63.156008 67.894277 67.894277 63.837260 64.327479 66.949797 66.949797 64.274859 66.664282 66.924175 66.924175 66.129464 65.085185 66.404674 63.496256 65.010968 65.010968 64.096451 65.870696 63.285696 65.563952 65.967077 65.358511 64.176526 63.619071 62.928582 65.719917 65.231524 65.647413 65.324708 64.222231 66.285121 66.258143 64.206126 66.216615 65.154310 66.089057 66.373159 66.191245 65.443679 62.850100 62.850100 62.850100 66.557432 66.557432 65.096643 66.244240 65.696269 66.156733 67.324014 67.324014 66.911732 70.584736 67.755920 66.097869 67.072415 66.925991 67.697883 67.697883 64.719295 63.570799 68.151663 68.151663 63.930510 66.626557 67.468426 63.416152 67.165651 64.290023 67.184875 63.264956 66.392881 66.890353 66.890353 65.436480 65.348345 62.850100 65.610310 73.808342 62.850100
67.371930 68.874931 71.622394 66.417162 72.413484 62.850100 67.060443 73.763973 69.229016 71.148272 76.150948 74.197561 74.447098 73.769236 73.281778 62.850100 76.554593 68.009768 78.786911 67.248493 68.058476 72.744522 80.281398 69.479666 65.195864 74.953315 76.589050 70.994806 76.394825 72.203630 76.235207 71.031553 71.731327 74.622851 71.953669 70.924208 70.514452 67.703212 71.433135 68.365558 71.068372 70.126506 67.978927 69.617213 65.512556 69.846479 65.469598 69.301624 71.516234 69.389091 67.970907 72.214601 68.718884 73.842093 66.598700 72.300859 72.547253 65.215609 73.349390 70.503471 69.698501 70.077869 72.233434 62.850100 74.535844 67.731772 65.252997 72.654123 72.525989 62.850100 77.215430 67.698534 76.075949 67.826275 73.442455 72.457506 75.226131 74.578805 77.854475 62.850100 62.850100 77.127957 79.249250 65.779542 67.463882 77.127573 73.175460 72.733282 73.980451 75.447352 73.413213 73.581153 62.850100 75.739598 62.850100 68.784573 70.020738 67.531848 73.105067 62.850100 71.110678 73.565710 69.825977 62.850100 68.859705 62.850100 72.207858 66.111385 69.822382 71.136317 73.885073 63.277116 65.703003 74.264461 73.525247 65.865319 73.681153 73.593149 69.493236 71.015056 73.870598 62.850100 73.635260 72.941593 72.822033 70.513534 73.348653 67.717233 74.043031 73.513859 77.520619 70.380797 76.845082 71.309792 71.602947 76.860411 71.283066 78.830241 75.450263 69.126384 63.435325 80.669485 76.779204 64.111672 70.021959 78.691017 62.850100 77.686191 65.126359 77.752280 62.850100 74.768171 71.567270 75.863943 70.780428 68.291891 62.850100 64.253111 73.242338 62.850100
67.056674 68.874931 71.622394 66.417162 72.413484 62.850100 67.060443 73.763973 69.229016 71.148272 76.150948 74.197561 74.447098 73.769236 73.281778 62.850100 76.554593 68.009768 78.786911 67.248493 68.058476 72.744522 80.281398 69.479666 65.195864 74.953315 76.589050 70.994806 76.394825 72.203630 76.235207 71.031553 71.731327 74.622851 71.953669 70.924208 70.514452 67.703212 71.433135 68.365558 71.068372 70.126506 67.978927 69.617213 65.512556 69.846479 65.469598 69.301624 71.516234 69.389091 67.970907 72.214601 68.718884 73.842093 66.598700 72.300859 72.547253 65.215609 73.349390 70.503471 69.698501 70.077869 72.233434 62.850100 74.535844 67.731772 65.252997 72.654123 72.525989 62.850100 77.215430 67.698534 76.075949 67.826275 73.442455 72.457506 75.226131 74.578805 77.854475 62.850100 62.850100 77.127957 79.249250 65.779542 67.463882 77.127573 73.175460 72.733282 73.980451 75.447352 73.413213 73.581153 62.850100 75.739598 62.850100 68.784573 70.020738 67.531848 73.105067 62.850100 71.110678 73.565710 69.825977 62.850100 68.859705 62.850100 72.207858 66.111385 69.822382 71.136317 73.885073 63.277116 65.703003 74.264461 73.525247 65.865319 73.681153 73.593149 69.493236 71.015056 73.870598 62.850100 73.635260 72.941593 72.822033 70.513534 73.348653 67.717233 74.043031 73.513859 77.520619 70.380797 76.845082 71.309792 71.602947 76.860411 71.283066 78.830241 75.450263 69.126384 63.435325 80.669485 76.779204 64.111672 70.021959 78.691017 62.850100 77.686191 65.126359 77.752280 62.850100 74.768171 71.567270 75.863943 70.780428 68.291891 62.850100 64.253111 73.242338 62.850100
66.741417 68.874931 71.622394 66.417162 72.413484 62.850100 67.060443 73.763973 69.229016 71.148272 76.150948 74.197561 74.447098 73.769236 73.281778 62.850100 76.554593 68.009768 78.786911 67.248493 68.058476 72.744522 80.281398 69.479666 65.195864 74.953315 76.589050 70.994806 76.394825 72.203630 76.235207 71.031553 71.731327 74.622851 71.953669 70.924208 70.514452 67.703212 71.433135 68.365558 71.068372 70.126506 67.978927 69.617213 65.512556 69.846479 65.469598 69.301624 71.516234 69.389091 67.970907 72.214601 68.718884 73.842093 66.598700 72.300859 72.547253 65.215609 73.349390 70.503471 69.698501 70.077869 72.233434 62.850100 74.535844 67.731772 65.252997 72.654123 72.525989 62.850100 77.215430 67.698534 76.075949 67.826275 73.442455 72.457506 75.226131 74.578805 77.854475 62.850100 62.850100 77.127957 79.249250 65.779542 67.463882 77.127573 73.175460 72.733282 73.980451 75.447352 73.413213 73.581153 62.850100 75.739598 62.850100 68.784573 70.020738 67.531848 73.105067 62.850100 71.110678 73.565710 69.825977 62.850100 68.859705 62.850100 72.207858 66.111385 69.822382 71.136317 73.885073 63.277116 65.703003 74.264461 73.525247 65.865319 73.681153 73.593149 69.493236 71.015056 73.870598 62.850100 73.635260 72.941593 72.822033 70.513534 73.348653 67.717233 74.043031 73.513859 77.520619 70.380797 76.845082 71.309792 71.602947 76.860411 71.283066 78.830241 75.450263 69.126384 63.435325 80.669485 76.779204 64.111672 70.021959 78.691017 62.850100 77.686191 65.126359 77.752280 62.850100 74.768171 71.567270 75.863943 70.780428 68.291891 62.850100 64.253111 73.242338 62.850100
66.426161 68.874931 71.622394 66.417162 72.413484 62.850100 67.060443 73.763973 69.229016 71.148272 76.150948 74.197561 74.447098 73.769236 73.281778 62.850100 76.554593 68.009768 78.786911 67.248493 68.058476 72.744522 80.281398 69.479666 65.195864 74.953315 76.589050 70.994806 76.394825 72.203630 76.235207 71.031553 71.731327 74.622851 71.953669 70.924208 70.514452 67.703212 71.433135 68.365558 71.068372 70.126506 67.978927 69.617213 65.512556 69.846479 65.469598 69.301624 71.516234 69.389091 67.970907 72.214601 68.718884 73.842093 66.598700 72.300859 72.547253 65.215609 73.349390 70.503471 69.698501 70.077869 72.233434 62.850100 74.535844 67.731772 65.252997 72.654123 72.525989 62.850100 77.215430 67.698534 76.075949 67.826275 73.442455 72.457506 75.226131 74.578805 77.854475 62.850100 62.850100 77.127957 79.249250 65.779542 67.463882 77.127573 73.175460 72.733282 73.980451 75.447352 73.413213 73.581153 62.850100 75.739598 62.850100 68.784573 70.020738 67.531848 73.105067 62.850100 71.110678 73.565710 69.825977 62.850100 68.859705 62.850100 72.207858 66.111385 69.822382 71.136317 73.885073 63.277116 65.703003 74.264461 73.525247 65.865319 73.681153 73.593149 69.493236 71.015056 73.870598 62.850100 73.635260 72.941593 72.822033 70.513534 73.348653 67.717233 74.043031 73.513859 77.520619 70.380797 76.845082 71.309792 71.602947 76.860411 71.283066 78.830241 75.450263 69.126384 63.435325 80.669485 76.779204 64.111672 70.021959 78.691017 62.850100 77.686191 65.126359 77.752280 62.850100 74.768171 71.567270 75.863943 70.780428 68.291891 62.850100 64.253111 73.242338 62.850100
66.110905 68.874931 71.622394 66.417162 72.413484 62.850100 67.060443 73.763973 69.229016 71.148272 76.150948 74.197561 74.447098 73.769236 73.281778 62.850100 76.554593 68.009768 78.786911 67.248493 68.058476 72.744522 80.281398 69.479666 65.195864 74.953315 76.589050 70.994806 76.394825 72.203630 76.235207 71.031553 71.731327 74.622851 71.953669 70.924208 70.514452 67.703212 71.433135 68.365558 71.068372 70.126506 67.978927 69.617213 65.512556 69.846479 65.469598 69.301624 71.516234 69.389091 67.970907 72.214601 68.718884 73.842093 66.598700 72.300859 72.547253 65.215609 73.349390 70.503471 69.698501 70.077869 72.233434 62.850100 74.535844 67.731772 65.252997 72.654123 72.525989 62.850100 77.215430 67.698534 76.075949 67.826275 73.442455 72.457506 75.226131 74.578805 77.854475 62.850100 62.850100 77.127957 79.249250 65.779542 67.463882 77.127573 73.175460 72.733282 73.980451 75.447352 73.413213 73.581153 62.850100 75.739598 62.850100 68.784573 70.020738 67.531848 73.105067 62.850100 71.110678 73.565710 69.825977 62.850100 68.859705 62.850100 72.207858 66.111385 69.822382 71.136317 73.885073 63.277116 65.703003 74.264461 73.525247 65.865319 73.681153 73.593149 69.493236 71.015056 73.870598 62.850100 73.635260 72.941593 72.822033 70.513534 73.348653 67.717233 74.043031 73.513859 77.520619 70.380797 76.845082 71.309792 71.602947 76.860411 71.283066 78.830241 75.450263 69.126384 63.435325 80.669485 76.779204 64.111672 70.021959 78.691017 62.850100 77.686191 65.126359 77.752280 62.850100 74.768171 71.567270 75.863943 70.780428 68.291891 62.850100 64.253111 73.242338 62.850100
65.795649 68.874931 71.622394 66.417162 72.413484 62.850100 67.060443 73.763973 69.229016 71.148272 76.150948 74.197561 74.447098 73.769236 73.281778 62.850100 76.554593 68.009768 78.786911 67.248493 68.058476 72.744522 80.281398 69.479666 65.195864 74.953315 76.589050 70.994806 76.394825 72.203630 76.235207 71.031553 71.731327 74.622851 71.953669 70.924208 70.514452 67.703212 71.433135 68.365558 71.068372 70.126506 67.978927 69.617213 65.512556 69.846479 65.469598 69.301624 71.516234 69.389091 67.970907 72.214601 68.718884 73.842093 66.598700 72.300859 72.547253 65.215609 73.349390 70.503471 69.698501 70.077869 72.233434 62.850100 74.535844 67.731772 65.252997 72.654123 72.525989 62.850100 77.215430 67.698534 76.075949 67.826275 73.442455 72.457506 75.226131 74.578805 77.854475 62.850100 62.850100 77.127957 79.249250 65.779542 67.463882 77.127573 73.175460 72.733282 73.980451 75.447352 73.413213 73.581153 62.850100 75.739598 62.850100 68.784573 70.020738 67.531848 73.105067 62.850100 71.110678 73.565710 69.825977 62.850100 68.859705 62.850100 72.207858 66.111385 69.822382 71.136317 73.885073 63.277116 65.703003 74.264461 73.525247 65.865319 73.681153 73.593149 69.493236 71.015056 73.870598 62.850100 73.635260 72.941593 72.822033 70.513534 73.348653 67.717233 74.043031 73.513859 77.520619 70.380797 76.845082 71.309792 71.602947 76.860411 71.283066 78.830241 75.450263 69.126384 63.435325 80.669485 76.779204 64.111672 70.021959 78.691017 62.850100 77.686191 65.126359 77.752280 62.850100 74.768171 71.567270 75.863943 70.780428 68.291891 62.850100 64.253111 73.242338 62.850100
65.480393 68.874931 71.622394 66.417162 72.413484 62.850100 67.060443 73.763973 69.229016 71.148272 76.150948 74.197561 74.447098 73.769236 73.281778 62.850100 76.554593 68.009768 78.786911 67.248493 68.058476 72.744522 80.281398 69.479666 65.195864 74.953315 76.589050 70.994806 76.394825 72.203630 76.235207 71.031553 71.731327 74.622851 71.953669 70.924208 70.514452 67.703212 71.433135 68.365558 71.068372 70.126506 67.978927 69.617213 65.512556 69.846479 65.469598 69.301624 71.516234 69.389091 67.970907 72.214601 68.718884 73.842093 66.598700 72.300859 72.547253 65.215609 73.349390 70.503471 69.698501 70.077869 72.233434 62.850100 74.535844 67.731772 65.252997 72.654123 72.525989 62.850100 77.215430 67.698534 76.075949 67.826275 73.442455 72.457506 75.226131 74.578805 77.854475 62.850100 62.850100 77.127957 79.249250 65.779542 67.463882 77.127573 73.175460 72.733282 73.980451 75.447352 73.413213 73.581153 62.850100 75.739598 62.850100 68.784573 70.020738 67.531848 73.105067 62.850100 71.110678 73.565710 69.825977 62.850100 68.859705 62.850100 72.207858 66.111385 69.822382 71.136317 73.885073 63.277116 65.703003 74.264461 73.525247 65.865319 73.681153 73.593149 69.493236 71.015056 73.870598 62.850100 73.635260 72.941593 72.822033 70.513534 73.348653 67.717233 74.043031 73.513859 77.520619 70.380797 76.845082 71.309792 71.602947 76.860411 71.283066 78.830241 75.450263 69.126384 63.435325 80.669485 76.779204 64.111672 70.021959 78.691017 62.850100 77.686191 65.126359 77.752280 62.850100 74.768171 71.567270 75.863943 70.780428 68.291891 62.850100 64.253111 73.242338 62.850100
65.165137 68.874931 71.622394 66.417162 72.413484 62.850100 67.060443 73.763973 69.229016 71.148272 76.150948 74.197561 74.447098 73.769236 73.281778 62.850100 76.554593 68.009768 78.786911 67.248493 68.058476 72.744522 80.281398 69.479666 65.195864 74.953315 76.589050 70.994806 76.394825 72.203630 76.235207 71.031553 71.731327 74.622851 71.953669 70.924208 70.514452 67.703212 71.433135 68.365558 71.068372 70.126506 67.978927 69.617213 65.512556 69.846479 65.469598 69.301624 71.516234 69.389091 67.970907 72.214601 68.718884 73.842093 66.598700 72.300859 72.547253 65.215609 73.349390 70.503471 69.698501 70.077869 72.233434 62.850100 74.535844 67.731772 65.252997 72.654123 72.525989 62.850100 77.215430 67.698534 76.075949 67.826275 73.442455 72.457506 75.226131 74.578805 77.854475 62.850100 62.850100 77.127957 79.249250 65.779542 67.463882 77.127573 73.175460 72.733282 73.980451 75.447352 73.413213 73.581153 62.850100 75.739598 62.850100 68.784573 70.020738 67.531848 73.105067 62.850100 71.110678 73.565710 69.825977 62.850100 68.859705 62.850100 72.207858 66.111385 69.822382 71.136317 73.885073 63.277116 65.703003 74.264461 73.525247 65.865319 73.681153 73.593149 69.493236 71.015056 73.870598 62.850100 73.635260 72.941593 72.822033 70.513534 73.348653 67.717233 74.043031 73.513859 77.520619 70.380797 76.845082 71.309792 71.602947 76.860411 71.283066 78.830241 75.450263 69.126384 63.435325 80.669485 76.779204 64.111672 70.021959 78.691017 62.850100 77.686191 65.126359 77.752280 62.850100 74.768171 71.567270 75.863943 70.780428 68.291891 62.850100 64.253111 73.242338 62.850100
64.849881 64.994827 69.281478 65.637035 70.872537 64.192671 65.466637 72.339747 66.652400 69.174270 72.795532 71.430154 71.335171 69.931734 66.982333 63.910668 74.237564 66.556277 76.019382 67.626893 65.383823 74.609951 77.116080 67.260032 64.634004 67.991579 72.398690 62.850100 74.400406 68.012954 74.387758 67.174145 68.878373 72.229238 68.101141 65.938641 66.880225 67.488863 70.233375 64.691743 69.191840 66.552220 65.984363 65.798046 64.099665 65.766326 68.106322 66.230324 66.135899 65.715615 66.302361 69.967640 63.756563 67.089542 65.459025 70.832399 65.359011 64.952211 71.453894 65.870558 66.688625 68.023757 70.623985 67.250222 66.748850 65.418589 65.583924 70.790905 69.758366 64.237852 74.103545 66.872627 73.242375 68.182105 71.617693 67.337495 73.999516 70.914176 73.527868 62.850100 63.201253 74.175146 77.343880 64.136827 64.775810 75.463000 73.529058 67.320851 67.821747 72.643610 69.334921 67.124632 65.237206 71.782590 62.850100 62.850100 69.100212 65.167697 70.010858 62.850100 68.467404 70.239344 66.576542 64.004474 63.890642 62.850100 69.653414 65.585333 66.797484 68.716514 70.939949 67.280641 67.229500 72.897613 67.238230 65.454427 67.071962 67.442279 66.859759 66.230735 70.191190 62.850100 71.178673 68.834311 68.739856 65.778387 67.274237 66.154945 67.160176 69.160420 75.801303 67.726093 75.246856 71.057307 67.261478 74.555273 67.775166 76.900603 73.064832 65.286528 63.777018 78.386167 71.456040 64.258375 67.282730 76.407177 62.850100 75.518381 64.929281 76.820753 62.850100 67.467986 67.977009 72.961129 66.221352 65.937672 66.666659 62.850100 72.367299 62.850100
64.534625 64.534625 68.437114 64.248153 68.269434 62.850100 62.850100 69.890115 62.850100 68.311137 71.011700 70.735534 70.432974 69.931734 62.850100 63.262146 70.542585 64.954647 71.746242 67.243262 63.793174 72.005382 72.607811 65.473830 62.850100 64.520075 62.850100 62.850100 70.199117 67.588707 70.759007 67.027915 68.878373 70.192223 68.101141 62.850100 66.713316 67.202336 66.166127 66.166127 65.788492 62.850100 62.850100 62.850100 62.850100 62.850100 67.905063 65.678192 62.850100 62.850100 64.651553 68.093854 63.756563 62.850100 63.830477 68.188379 62.850100 63.750176 67.708427 62.850100 66.125148 67.245172 66.652234 66.652234 62.850100 62.850100 64.513077 67.515617 67.384746 63.575098 69.130517 65.779015 69.033775 70.292952 67.170347 66.434447 67.856579 62.850100 65.603236 66.228771 62.850100 73.328752 73.759081 62.850100 62.850100 72.150230 71.716466 63.030835 62.850100 71.616345 69.334921 62.850100 62.850100 65.440794 63.211997 67.255041 67.523383 64.304316 65.051612 63.254035 64.828047 65.121858 64.678315 63.760461 63.410552 62.850100 64.941719 64.439439 64.888876 64.653678 68.172981 66.006940 66.303737 70.114283 62.850100 62.850100 62.850100 62.850100 62.850100 62.850100 69.478810 62.850100 69.406637 68.834311 68.739856 62.850100 62.850100 62.850100 62.850100 69.160420 72.525780 66.342230 72.633329 70.110861 66.836859 71.981649 66.255708 73.334343 72.649447 62.850100 62.850100 74.315728 71.456040 62.850100 65.040120 72.838099 63.154962 72.183290 63.433682 75.229075 62.936816 62.850100 67.303996 71.587906 62.850100 64.086550 66.052630 62.850100 69.306449 62.850100
67.328008 65.390146 65.753468 64.248153 65.666331 62.850100 62.850100 67.440482 62.850100 63.983284 67.035519 67.035519 66.806871 66.806871 62.850100 63.262146 66.847605 64.954647 67.473102 67.001356 66.802862 69.400812 69.400812 65.473830 62.850100 64.520075 62.850100 62.850100 65.752709 66.952017 66.960072 66.168042 66.168042 66.665535 66.665535 62.850100 64.345526 66.915808 69.486090 68.816698 65.581206 62.850100 62.850100 62.850100 62.850100 62.850100 66.098739 65.678192 62.850100 62.850100 64.651553 66.220069 63.756563 62.850100 63.830477 68.213400 63.701380 63.750176 63.861454 62.850100 63.765018 63.765018 63.641587 63.641587 62.850100 62.850100 63.821316 63.821316 63.794073 63.575098 64.157489 64.157489 64.605462 70.239663 66.267299 65.531399 64.795498 65.787143 64.537217 64.896493 62.850100 69.860902 69.860902 62.850100 62.850100 68.548188 68.548188 63.030835 62.850100 68.512577 68.501034 62.850100 62.850100 64.010593 62.850100 65.853447 65.853447 64.304316 62.850100 62.850100 62.850100 62.850100 62.850100 62.850100 62.850100 62.850100 62.850100 62.850100 62.850100 62.850100 63.961456 64.733239 64.468682 68.279261 62.850100 62.850100 62.850100 62.850100 62.850100 62.850100 65.778975 62.850100 65.728803 68.002847 68.002847 62.850100 62.850100 62.850100 62.850100 68.935543 69.068304 66.342230 69.715274 67.919094 66.836859 68.718612 66.255708 69.587938 69.587938 62.850100 62.850100 70.218638 70.209392 62.850100 65.040120 69.269021 63.154962 68.848199 63.433682 73.104759 62.936816 62.850100 67.303996 68.465567 62.850100 64.086550 62.850100 62.850100 62.850100 62.850100
70.121391 65.390146 63.069823 63.069823 63.063228 62.850100 62.850100 67.387932 62.850100 62.850100 63.166847 63.166847 63.149543 63.149543 62.850100 63.152626 63.152626 63.199962 63.199962 63.199962 66.796242 66.796242 66.796242 63.953843 62.850100 62.850100 62.850100 62.850100 62.850100 63.161137 63.161137 63.101197 63.101197 63.138847 63.138847 62.850100 64.058998 66.629281 69.199563 68.609413 65.373921 62.850100 62.850100 62.850100 62.850100 62.850100 64.292416 64.292416 62.850100 62.850100 64.651553 64.346283 64.346283 62.850100 63.830477 63.599889 63.599889 62.850100 62.850100 62.850100 62.850100 62.850100 62.850100 62.850100 62.850100 62.850100 62.850100 62.850100 62.850100 62.850100 62.850100 62.850100 66.247130 67.879115 65.364251 64.628350 63.892450 63.156550 63.204939 63.564215 62.850100 65.962723 65.962723 62.850100 62.850100 65.379911 65.379911 63.030835 62.850100 65.364100 65.364100 62.850100 62.850100 68.589475 62.850100 64.183512 64.183512 64.183512 62.850100 62.850100 62.850100 62.850100 62.850100 62.850100 62.850100 62.850100 62.850100 62.850100 62.850100 62.850100 63.724095 63.459538 63.194981 63.700378 62.850100 62.850100 62.850100 62.850100 62.850100 62.850100 64.667401 62.850100 64.660115 65.137793 65.137793 62.850100 62.850100 62.850100 62.850100 65.610829 65.610829 65.503462 66.742520 65.727327 64.851633 65.455574 65.455574 65.841534 65.841534 62.850100 62.850100 66.121549 66.121549 62.850100 65.040120 65.699942 63.154962 65.513108 63.433682 70.980444 62.936816 62.850100 65.343229 65.343229 62.850100 64.086550 62.850100 62.850100 62.850100 62.850100
67.316535 65.390146 62.850100 62.850100 62.850100 62.850100 62.850100 63.868285 63.726700 64.959203 63.131712 62.850100 62.850100 62.850100 62.850100 62.850100 62.850100 62.850100 62.850100 62.850100 64.191672 64.191672 64.191672 63.953843 62.850100 62.850100 62.850100 62.850100 62.850100 62.850100 62.850100 62.850100 62.850100 62.850100 62.850100 62.850100 62.850100 62.850100 62.850100 62.850100 62.850100 62.850100 62.850100 62.850100 62.850100 62.850100 62.850100 62.850100 62.850100 62.850100 62.850100 62.850100 62.850100 62.850100 62.850100 62.850100 62.850100 62.850100 62.850100 62.850100 62.850100 62.850100 62.850100 62.850100 63.201616 62.850100 62.850100 62.850100 62.850100 62.850100 62.850100 62.850100 66.247130 65.197103 64.461202 63.725302 62.989402 62.850100 62.850100 62.850100 62.850100 62.850100 62.850100 62.850100 62.850100 62.850100 62.850100 62.850100 62.850100 62.850100 62.850100 62.850100 62.850100 62.850100 62.850100 62.850100 62.850100 62.850100 62.850100 62.850100 62.850100 62.850100 62.850100 62.850100 62.850100 62.850100 62.850100 62.850100 62.850100 62.850100 62.850100 62.850100 62.850100 62.850100 62.850100 62.850100 62.850100 62.850100 62.850100 62.850100 63.555827 62.850100 63.591428 62.850100 62.850100 62.850100 62.850100 62.850100 62.850100 62.850100 62.850100 62.850100 63.769766 63.535560 62.850100 62.850100 62.850100 62.850100 62.850100 62.850100 62.850100 62.850100 62.850100 62.850100 62.850100 62.850100 62.850100 62.850100 62.850100 69.155426 62.936816 62.850100 62.850100 62.850100 62.850100 62.850100 62.850100 62.850100 62.850100 62.850100
64.511680 65.390146 62.850100 62.850100 62.850100 62.850100 62.850100 67.387932 63.726700 68.059414 68.522607 64.645095 62.850100 62.850100 62.850100 62.850100 62.850100 62.850100 62.850100 62.850100 62.850100 62.850100 62.850100 62.850100 62.850100 62.850100 62.850100 62.850100 62.850100 62.850100 62.850100 62.850100 62.850100 62.850100 62.850100 62.850100 62.850100 62.850100 62.850100 62.850100 62.850100 62.850100 62.850100 62.850100 62.850100 62.850100 62.850100 62.850100 62.850100 62.850100 62.850100 62.850100 62.850100 62.850100 62.850100 62.850100 62.850100 62.850100 62.850100 62.850100 62.850100 62.850100 62.850100 62.850100 64.945951 62.850100 62.850100 62.850100 62.850100 62.850100 62.850100 62.850100 66.247130 64.294054 63.558154 62.850100 62.850100 62.850100 62.850100 62.850100 62.850100 62.850100 62.850100 62.850100 62.850100 62.850100 62.850100 62.850100 62.850100 62.850100 62.850100 62.850100 62.850100 62.850100 62.850100 62.850100 62.850100 62.850100 62.850100 62.850100 62.850100 62.850100 62.850100 62.850100 62.850100 62.850100 62.850100 62.850100 62.850100 62.850100 62.850100 62.850100 62.850100 62.850100 62.850100 62.850100 62.850100 62.850100 62.850100 62.850100 62.850100 63.931261 62.850100 62.850100 62.850100 62.850100 62.850100 62.850100 62.850100 62.850100 62.850100 62.850100 62.850100 62.850100 62.850100 62.850100 62.850100 62.850100 62.850100 62.850100 62.850100 62.850100 62.850100 62.850100 62.850100 62.850100 62.850100 62.850100 62.850100 69.155426 62.936816 62.850100 62.850100 62.850100 62.850100 62.850100 62.850100 62.850100 62.850100 62.850100
61.706824 65.390146 62.850100 62.850100 62.850100 62.850100 62.850100 67.387932 63.726700 67.524438 67.524438 64.645095 62.850100 62.850100 62.850100 62.850100 62.850100 62.850100 62.850100 62.850100 62.850100 62.850100 62.850100 62.850100 62.850100 62.850100 62.850100 62.850100 62.850100 62.850100 62.850100 62.850100 62.850100 62.850100 62.850100 62.850100 62.850100 62.850100 62.850100 62.850100 62.850100 62.850100 62.850100 62.850100 62.850100 62.850100 62.850100 62.850100 62.850100 62.850100 62.850100 62.850100 62.850100 62.850100 62.850100 62.850100 62.850100 62.850100 62.850100 62.850100 62.850100 62.850100 62.850100 62.850100 66.690286 62.850100 62.850100 62.850100 62.850100 62.850100 62.850100 62.850100 64.126906 63.391006 62.850100 62.850100 62.850100 62.850100 62.850100 62.850100 62.850100 62.850100 62.850100 62.850100 62.850100 62.850100 62.850100 62.850100 62.850100 62.850100 62.850100 62.850100 62.850100 62.850100 62.850100 62.850100 62.850100 62.850100 62.850100 62.850100 62.850100 62.850100 62.850100 62.850100 62.850100 62.850100 62.850100 62.850100 62.850100 62.850100 62.850100 62.850100 62.850100 62.850100 62.850100 62.850100 62.850100 62.850100 62.850100 62.850100 62.850100 62.850100 62.850100 62.850100 62.850100 62.850100 62.850100 62.850100 62.850100 62.850100 62.850100 62.850100 62.850100 62.850100 62.850100 62.850100 62.850100 62.850100 62.850100 62.850100 62.850100 62.850100 62.850100 62.850100 62.850100 62.850100 62.850100 62.850100 62.850100 69.155426 62.936816 62.850100 62.850100 62.850100 62.850100 62.850100 62.850100 62.850100 62.850100 62.850100
58.901968 65.390146 62.850100 62.850100 62.850100 62.850100 62.850100 66.292036 63.726700 65.621528 65.621528 64.645095 62.850100 62.850100 62.850100 62.850100 62.850100 62.850100 62.850100 62.850100 62.850100 62.850100 62.850100 62.850100 62.850100 62.850100 62.850100 62.850100 62.850100 62.850100 62.850100 62.850100 62.850100 62.850100 62.850100 62.850100 62.850100 62.850100 62.850100 62.850100 62.850100 62.850100 62.850100 62.850100 62.850100 62.850100 62.850100 62.850100 62.850100 62.850100 62.850100 62.850100 62.850100 62.850100 62.850100 62.850100 62.850100 62.850100 62.850100 62.850100 62.850100 62.850100 62.850100 62.850100 66.745216 62.850100 62.850100 62.850100 62.850100 62.850100 62.850100 62.850100 63.223858 62.850100 62.850100 62.850100 62.850100 62.850100 62.850100 62.850100 62.850100 62.850100 62.850100 62.850100 62.850100 62.850100 62.850100 62.850100 62.850100 62.850100 62.850100 62.850100 62.850100 62.850100 62.850100 62.850100 62.850100 62.850100 62.850100 62.850100 62.850100 62.850100 62.850100 62.850100 62.850100 62.850100 62.850100 62.850100 62.850100 62.850100 62.850100 62.850100 62.850100 62.850100 62.850100 62.850100 62.850100 62.850100 62.850100 62.850100 62.850100 66.067750 62.850100 62.850100 62.850100 62.850100 62.850100 62.850100 62.850100 62.850100 62.850100 62.850100 62.850100 62.850100 62.850100 62.850100 62.850100 62.850100 62.850100 62.850100 62.850100 62.850100 62.850100 62.850100 62.850100 62.850100 62.850100 62.850100 62.850100 67.390528 62.936816 62.850100 62.850100 62.850100 62.850100 62.850100 62.850100 62.850100 62.850100 62.850100
56.097113 63.928744 62.850100 62.850100 62.850100 62.850100 62.850100 63.928744 63.718619 63.718619 63.718619 63.718619 62.850100 62.850100 62.850100 62.850100 62.850100 62.850100 62.850100 62.850100 62.850100 62.850100 62.850100 62.850100 62.850100 62.850100 62.850100 62.850100 62.850100 62.850100 62.850100 62.850100 62.850100 62.850100 62.850100 62.850100 62.850100 62.850100 62.850100 62.850100 62.850100 62.850100 62.850100 62.850100 62.850100 62.850100 62.850100 62.850100 62.850100 62.850100 62.850100 62.850100 62.850100 62.850100 62.850100 62.850100 62.850100 62.850100 62.850100 62.850100 62.850100 62.850100 62.850100 62.850100 66.745216 62.850100 62.850100 62.850100 62.850100 62.850100 62.850100 62.850100 62.850100 62.850100 62.850100 62.850100 62.850100 62.850100 62.850100 62.850100 62.850100 62.850100 62.850100 62.850100 62.850100 62.850100 62.850100 62.850100 62.850100 62.850100 62.850100 62.850100 62.850100 62.850100 62.850100 62.850100 62.850100 62.850100 62.850100 62.850100 62.850100 62.850100 62.850100 62.850100 62.850100 62.850100 62.850100 62.850100 62.850100 62.850100 62.850100 62.850100 62.850100 62.850100 62.850100 62.850100 62.850100 62.850100 62.850100 62.850100 65.276021 69.730855 64.680993 62.850100 62.850100 62.850100 62.850100 62.850100 62.850100 62.850100 62.850100 62.850100 62.850100 62.850100 62.850100 62.850100 62.850100 62.850100 62.850100 62.850100 62.850100 62.850100 62.850100 62.850100 62.850100 62.850100 62.850100 62.850100 62.850100 64.272993 62.936816 62.850100 62.850100 62.850100 62.850100 62.850100 62.850100 62.850100 62.850100 62.850100
53.292257 62.850100 62.850100 62.850100 64.892357 62.850100 62.850100 62.850100 62.850100 62.850100 62.850100 62.850100 62.850100 62.850100 62.850100 62.850100 62.850100 62.850100 62.850100 62.850100 62.850100 62.850100 62.850100 62.850100 62.850100 64.854634 63.698476 63.698476 63.698476 62.850100 62.850100 62.850100 62.850100 62.850100 62.850100 62.850100 62.850100 62.850100 62.850100 62.850100 62.850100 62.850100 62.850100 62.850100 62.850100 62.850100 62.850100 62.850100 62.850100 62.850100 62.850100 62.850100 62.850100 62.850100 62.850100 62.850100 62.850100 62.850100 62.850100 62.850100 62.850100 62.850100 62.850100 62.850100 66.642862 62.850100 62.850100 62.850100 62.850100 62.850100 62.850100 62.850100 62.850100 62.850100 62.850100 62.850100 62.850100 62.850100 62.850100 62.850100 62.850100 62.850100 62.850100 62.850100 62.850100 62.850100 62.850100 62.850100 62.850100 62.850100 62.850100 62.850100 62.850100 62.850100 62.850100 62.850100 62.850100 62.850100 62.850100 62.850100 62.850100 62.850100 62.850100 62.850100 62.850100 62.850100 62.850100 62.850100 62.850100 62.850100 62.850100 62.850100 62.850100 62.850100 62.850100 62.850100 62.850100 62.850100 62.850100 62.850100 65.635419 69.028617 65.831200 62.850100 62.850100 62.850100 62.850100 62.850100 62.850100 63.638694 63.638694 62.850100 62.850100 62.850100 62.850100 62.850100 62.850100 62.850100 62.850100 62.850100 62.850100 62.850100 62.850100 62.850100 62.850100 62.850100 62.850100 62.850100 62.850100 62.850100 62.850100 62.850100 62.850100 62.850100 62.850100 62.850100 62.850100 62.850100 62.850100 62.850100
50.487401 62.850100 62.850100 62.850100 68.511932 62.850100 62.850100 62.850100 62.850100 62.850100 62.850100 62.850100 62.850100 62.850100 62.850100 62.850100 62.850100 62.850100 62.850100 62.850100 62.850100 62.850100 62.850100 62.850100 62.850100 68.649380 68.277347 66.549271 64.403161 62.850100 62.850100 62.850100 62.850100 62.850100 62.850100 62.850100 62.850100 62.850100 62.850100 62.850100 62.850100 62.850100 62.850100 62.850100 62.850100 62.850100 62.850100 62.850100 62.850100 62.850100 62.850100 62.850100 62.850100 62.850100 62.850100 62.850100 62.850100 62.850100 62.850100 62.850100 62.850100 62.850100 62.850100 62.850100 66.745216 62.850100 62.850100 62.850100 62.850100 62.850100 62.850100 62.850100 62.850100 62.850100 62.850100 62.850100 62.850100 62.850100 62.850100 62.850100 62.850100 62.850100 62.850100 62.850100 62.850100 62.850100 62.850100 62.850100 63.923101 62.850100 62.850100 62.850100 62.850100 62.850100 62.850100 62.850100 62.850100 62.850100 62.850100 62.850100 62.850100 62.850100 62.850100 62.850100 62.850100 62.850100 62.850100 62.850100 62.850100 62.850100 62.850100 62.850100 62.850100 62.850100 62.850100 62.850100 62.850100 62.850100 62.850100 62.850100 65.635419 67.563375 65.831200 62.850100 62.850100 62.850100 62.850100 62.850100 62.850100 65.089426 65.089426 62.850100 62.850100 62.850100 62.850100 62.850100 62.850100 62.850100 62.850100 62.850100 62.850100 62.850100 62.850100 62.850100 62.850100 62.850100 62.850100 62.850100 62.850100 62.850100 62.850100 62.850100 62.850100 62.850100 62.850100 62.850100 62.850100 62.850100 62.850100 62.850100
47.682546 62.850100 62.850100 62.850100 66.005800 62.850100 62.850100 62.850100 62.850100 62.850100 62.850100 62.850100 62.850100 62.850100 62.850100 62.850100 62.850100 62.850100 62.850100 62.850100 62.850100 62.850100 64.708597 62.850100 62.850100 68.864986 68.695381 66.549271 64.403161 62.850100 62.850100 62.850100 62.850100 62.850100 62.850100 62.850100 62.850100 62.850100 62.850100 62.850100 62.850100 62.850100 62.850100 62.850100 62.850100 62.850100 62.850100 62.850100 62.850100 62.850100 62.850100 62.850100 62.850100 62.850100 62.850100 62.850100 62.850100 62.850100 62.850100 62.850100 62.850100 62.850100 62.850100 62.850100 66.745216 62.850100 62.850100 62.850100 62.850100 62.850100 62.850100 62.850100 62.850100 62.850100 62.850100 62.850100 62.850100 62.850100 62.850100 62.850100 62.850100 62.850100 62.850100 62.850100 62.850100 62.850100 62.850100 62.850100 66.212543 62.850100 62.850100 62.850100 62.850100 62.850100 62.850100 62.850100 62.850100 62.850100 62.850100 62.850100 62.850100 62.850100 62.850100 62.850100 62.850100 62.850100 62.850100 62.850100 62.850100 62.850100 62.850100 62.850100 62.850100 62.850100 62.850100 62.850100 62.850100 62.850100 62.850100 62.850100 65.635419 66.098134 65.831200 62.850100 62.850100 62.850100 62.850100 62.850100 62.850100 66.540157 66.437898 62.850100 62.850100 62.850100 62.850100 62.850100 62.850100 62.850100 62.850100 62.850100 62.850100 62.850100 62.850100 62.850100 62.850100 62.850100 62.850100 62.850100 62.850100 62.850100 62.850100 62.850100 62.850100 62.850100 62.850100 62.850100 62.850100 62.850100 62.850100 62.850100
44.877690 62.850100 62.850100 62.850100 62.850100 62.850100 62.850100 62.850100 62.850100 62.850100 62.850100 62.850100 62.850100 62.850100 62.850100 62.850100 62.850100 62.850100 62.850100 62.850100 64.343454 66.815472 69.287490 62.850100 62.850100 66.151573 66.151573 66.151573 64.403161 62.850100 62.850100 62.850100 62.850100 62.850100 62.850100 62.850100 62.850100 62.850100 62.850100 62.850100 62.850100 62.850100 62.850100 62.850100 62.850100 62.850100 62.850100 62.850100 62.850100 62.850100 62.850100 62.850100 62.850100 62.850100 62.850100 62.850100 62.850100 62.850100 62.850100 62.850100 62.850100 62.850100 62.850100 62.850100 64.698215 62.850100 62.850100 62.850100 62.850100 62.850100 62.850100 62.850100 62.850100 62.850100 62.850100 62.850100 62.850100 62.850100 62.850100 62.850100 62.850100 62.850100 62.850100 62.850100 62.850100 62.850100 62.850100 62.850100 66.416460 62.850100 62.850100 62.850100 62.850100 62.850100 62.850100 62.850100 62.850100 62.850100 62.850100 62.850100 62.850100 62.850100 62.850100 62.850100 62.850100 62.850100 62.850100 62.850100 62.850100 62.850100 62.850100 62.850100 62.850100 62.850100 62.850100 62.850100 62.850100 62.850100 62.850100 62.850100 64.632893 64.632893 64.632893 62.850100 62.850100 62.850100 62.850100 62.850100 62.850100 67.987950 66.437898 62.850100 62.850100 62.850100 62.850100 62.850100 62.850100 62.850100 62.850100 62.850100 62.850100 62.850100 62.850100 62.850100 62.850100 62.850100 62.850100 62.850100 62.850100 62.850100 62.850100 62.850100 62.850100 62.850100 62.850100 62.850100 62.850100 62.850100 62.850100 62.850100
42.072834 62.850100 62.850100 62.850100 62.850100 62.850100 62.850100 62.850100 62.850100 62.850100 62.850100 62.850100 62.850100 62.850100 62.850100 62.850100 62.850100 62.850100 62.850100 62.850100 64.758428 67.230446 68.980303 63.722680 62.850100 63.438160 63.438160 63.438160 63.438160 62.850100 62.850100 62.850100 62.850100 62.850100 62.850100 62.850100 62.850100 62.850100 62.850100 62.850100 62.850100 62.850100 62.850100 62.850100 62.850100 62.850100 62.850100 62.850100 62.850100 62.850100 62.850100 62.850100 62.850100 62.850100 62.850100 62.850100 62.850100 62.850100 62.850100 62.850100 62.850100 62.850100 62.850100 62.850100 62.850100 62.850100 62.850100 62.850100 62.850100 62.850100 62.850100 62.850100 62.850100 62.850100 62.850100 62.850100 62.850100 62.850100 62.850100 62.850100 62.850100 62.850100 62.850100 62.850100 62.850100 62.850100 62.850100 62.850100 62.885857 62.850100 62.850100 62.850100 62.850100 62.850100 62.850100 62.850100 62.850100 62.850100 62.850100 62.850100 62.850100 62.850100 62.850100 62.850100 62.850100 62.850100 62.850100 62.850100 62.850100 62.850100 62.850100 62.850100 62.850100 62.850100 62.850100 62.850100 62.850100 62.850100 62.850100 62.850100 63.167652 63.167652 63.167652 62.850100 62.850100 62.850100 62.850100 62.850100 62.850100 67.987950 66.437898 62.850100 62.850100 62.850100 62.850100 62.850100 62.850100 62.850100 62.850100 62.850100 62.850100 62.850100 62.850100 62.850100 62.850100 62.850100 62.850100 62.850100 62.850100 62.850100 62.850100 62.850100 62.850100 62.850100 62.850100 62.850100 62.850100 62.850100 62.850100 62.850100
39.267979 62.850100 62.850100 62.850100 62.850100 62.850100 62.850100 62.850100 62.850100 62.850100 62.850100 62.850100 62.850100 62.850100 62.850100 62.850100 62.850100 62.850100 62.850100 62.850100 64.758428 67.230446 67.473994 63.955244 64.192632 62.850100 62.850100 62.850100 62.850100 62.850100 62.850100 62.850100 62.850100 62.850100 62.850100 62.850100 62.850100 62.850100 62.850100 62.850100 62.850100 62.850100 62.850100 62.850100 62.850100 62.850100 62.850100 62.850100 62.850100 62.850100 62.850100 62.850100 62.850100 62.850100 62.850100 62.850100 62.850100 62.850100 62.850100 62.850100 62.850100 62.850100 62.850100 62.850100 62.850100 62.850100 62.850100 62.850100 62.850100 62.850100 62.850100 62.850100 62.850100 62.850100 62.850100 62.850100 62.850100 62.850100 62.850100 62.850100 62.850100 62.850100 62.850100 62.850100 62.850100 62.850100 62.850100 62.850100 63.698492 62.850100 62.850100 62.850100 62.850100 62.850100 62.850100 62.850100 62.850100 62.850100 62.850100 62.850100 62.850100 62.850100 62.850100 62.850100 62.850100 62.850100 62.850100 62.850100 62.850100 62.850100 64.008101 65.611649 65.076165 64.561597 62.850100 62.850100 62.850100 62.850100 62.850100 62.850100 62.850100 62.850100 62.850100 62.850100 62.850100 62.850100 62.850100 62.850100 62.850100 67.987950 63.748329 62.850100 62.850100 62.850100 62.850100 62.850100 62.850100 62.850100 62.850100 62.850100 62.850100 62.850100 62.850100 62.850100 62.850100 62.850100 62.850100 62.850100 62.850100 62.850100 62.850100 62.850100 62.850100 62.850100 62.850100 62.850100 62.850100 62.850100 62.850100 62.850100
36.463123 62.850100 62.850100 62.850100 62.850100 62.850100 62.850100 62.850100 62.850100 62.850100 62.850100 62.850100 62.850100 62.850100 62.850100 62.850100 62.850100 62.850100 62.850100 62.850100 64.758428 65.967685 65.967685 63.955244 62.850100 62.850100 62.850100 62.850100 62.850100 62.850100 62.850100 62.850100 62.850100 62.850100 62.850100 62.850100 62.850100 62.850100 62.850100 62.850100 62.850100 62.850100 62.850100 62.850100 62.850100 62.850100 62.850100 62.850100 62.850100 62.850100 62.850100 62.850100 62.850100 62.850100 62.850100 62.850100 62.850100 62.850100 62.850100 62.850100 62.850100 62.850100 62.850100 62.850100 62.850100 62.850100 62.850100 62.850100 62.850100 62.850100 62.850100 62.850100 62.850100 62.850100 62.850100 62.850100 62.850100 62.850100 62.850100 62.850100 62.850100 62.850100 62.850100 62.850100 62.850100 62.850100 62.850100 62.850100 66.416460 62.850100 62.850100 62.850100 62.850100 62.850100 62.850100 62.850100 62.850100 62.850100 62.850100 62.850100 62.850100 62.850100 62.850100 62.850100 62.850100 62.850100 62.850100 62.850100 62.850100 62.850100 64.008101 66.149987 68.291873 69.140489 62.850100 62.850100 62.850100 62.850100 62.850100 62.850100 62.850100 62.850100 62.850100 62.850100 62.850100 62.850100 62.850100 62.850100 62.850100 64.059709 62.850100 62.850100 62.850100 62.850100 62.850100 62.850100 62.850100 62.850100 62.850100 62.850100 62.850100 62.850100 62.850100 62.850100 62.850100 62.850100 62.850100 62.850100 62.850100 62.850100 62.850100 62.850100 62.850100 62.850100 62.850100 62.850100 62.850100 62.850100 62.850100 62.850100
33.658268 62.850100 62.850100 62.850100 62.850100 62.850100 62.850100 62.850100 62.850100 62.850100 62.850100 62.850100 62.850100 62.850100 62.850100 62.850100 62.850100 62.850100 62.850100 62.850100 64.461376 64.461376 64.461376 63.955244 62.850100 62.850100 62.850100 62.850100 62.850100 62.850100 62.850100 62.850100 62.850100 62.850100 62.850100 62.850100 62.850100 62.850100 62.850100 62.850100 62.850100 62.850100 62.850100 62.850100 62.850100 62.850100 62.850100 62.850100 62.850100 62.850100 62.850100 62.850100 62.850100 62.850100 62.850100 62.850100 62.850100 62.850100 62.850100 62.850100 62.850100 62.850100 62.850100 62.850100 62.850100 62.850100 62.850100 62.850100 62.850100 62.850100 62.850100 62.850100 62.850100 62.850100 62.850100 62.850100 62.850100 62.850100 62.850100 62.850100 62.850100 62.850100 62.850100 62.850100 62.850100 62.850100 62.850100 62.850100 65.906933 62.850100 62.850100 62.850100 62.850100 62.850100 62.850100 62.850100 62.850100 62.850100 62.850100 62.850100 62.850100 62.850100 62.850100 62.850100 62.850100 62.850100 62.850100 62.850100 62.850100 62.850100 64.008101 66.149987 67.293508 67.293508 62.850100 62.850100 62.850100 62.850100 62.850100 62.850100 62.850100 62.850100 62.850100 62.850100 62.850100 62.850100 62.850100 62.850100 62.850100 62.850100 62.850100 62.850100 62.850100 62.850100 62.850100 62.850100 62.850100 62.850100 62.850100 62.850100 62.850100 62.850100 62.850100 62.850100 62.850100 62.850100 62.850100 62.850100 62.850100 62.850100 62.850100 62.850100 62.850100 62.850100 62.850100 62.850100 62.850100 62.850100 62.850100 62.850100
30.853412 62.850100 62.850100 62.850100 62.850100 62.850100 62.850100 62.850100 62.850100 62.850100 62.850100 62.850100 62.850100 62.850100 62.850100 62.850100 62.850100 62.850100 62.850100 62.850100 62.955067 62.955067 62.955067 62.955067 62.850100 62.850100 62.850100 62.850100 62.850100 62.850100 62.850100 62.850100 62.850100 62.850100 62.850100 62.850100 62.850100 62.850100 62.850100 62.850100 62.850100 62.850100 62.850100 62.850100 62.850100 62.850100 62.850100 62.850100 62.850100 62.850100 62.850100 62.850100 62.850100 62.850100 62.850100 62.850100 62.850100 62.850100 62.850100 62.850100 62.850100 62.850100 62.850100 62.850100 62.850100 62.850100 62.850100 62.850100 62.850100 62.850100 62.850100 62.850100 62.850100 62.850100 62.850100 62.850100 62.850100 62.850100 62.850100 62.850100 62.850100 62.850100 62.850100 62.850100 62.850100 62.850100 62.850100 62.850100 63.049239 62.850100 62.850100 62.850100 62.850100 62.850100 62.850100 62.850100 62.850100 62.850100 62.850100 62.850100 62.850100 62.850100 62.850100 62.850100 62.850100 62.850100 62.850100 62.850100 62.850100 62.850100 63.139568 63.139568 63.139568 63.139568 62.850100 62.850100 62.850100 62.850100 62.850100 62.850100 62.850100 62.850100 62.850100 62.850100 62.850100 62.850100 62.850100 62.850100 62.850100 62.850100 62.850100 62.850100 62.850100 62.850100 62.850100 62.850100 62.850100 62.850100 62.850100 62.850100 62.850100 62.850100 62.850100 62.850100 62.850100 62.850100 62.850100 62.850100 62.850100 62.850100 62.850100 62.850100 62.850100 62.850100 62.850100 62.850100 62.850100 62.850100 62.850100 62.850100
28.048556 56.962031 56.962031 56.962031 56.962031 56.962031 56.962031 56.962031 56.962031 56.962031 56.962031 56.962031 56.962031 56.962031 56.962031 56.962031 56.962031 56.962031 56.962031 56.962031 56.962031 56.962031 56.962031 56.962031 56.962031 56.962031 56.962031 56.962031 56.962031 56.962031 56.962031 56.962031 56.962031 56.962031 56.962031 56.962031 56.962031 56.962031 56.962031 56.962031 56.962031 56.962031 56.962031 56.962031 56.962031 56.962031 56.962031 56.962031 56.962031 56.962031 56.962031 56.962031 56.962031 56.962031 56.962031 56.962031 56.962031 56.962031 56.962031 56.962031 56.962031 56.962031 56.962031 56.962031 56.962031 56.962031 56.962031 56.962031 56.962031 56.962031 56.962031 56.962031 56.962031 56.962031 56.962031 56.962031 56.962031 56.962031 56.962031 56.962031 56.962031 56.962031 56.962031 56.962031 56.962031 56.962031 56.962031 56.962031 56.962031 56.962031 56.962031 56.962031 56.962031 56.962031 56.962031 56.962031 56.962031 56.962031 56.962031 56.962031 56.962031 56.962031 56.962031 56.962031 56.962031 56.962031 56.962031 56.962031 56.962031 56.962031 56.962031 56.962031 56.962031 56.962031 56.962031 56.962031 56.962031 56.962031 56.962031 56.962031 56.962031 56.962031 56.962031 56.962031 56.962031 56.962031 56.962031 56.962031 56.962031 56.962031 56.962031 56.962031 56.962031 56.962031 56.962031 56.962031 56.962031 56.962031 56.962031 56.962031 56.962031 56.962031 56.962031 56.962031 56.962031 56.962031 56.962031 56.962031 56.962031 56.962031 56.962031 56.962031 56.962031 56.962031 56.962031 56.962031 56.962031 56.962031 56.962031 56.962031
25.243701 50.632916 50.632916 50.632916 50.632916 50.632916 50.632916 50.632916 50.632916 50.632916 50.632916 50.632916 50.632916 50.632916 50.632916 50.632916 50.632916 50.632916 50.632916 50.632916 50.632916 50.632916 50.632916 50.632916 50.632916 50.632916 50.632916 50.632916 50.632916 50.632916 50.632916 50.632916 50.632916 50.632916 50.632916 50.632916 50.632916 50.632916 50.632916 50.632916 50.632916 50.632916 50.632916 50.632916 50.632916 50.632916 50.632916 50.632916 50.632916 50.632916 50.632916 50.632916 50.632916 50.632916 50.632916 50.632916 50.632916 50.632916 50.632916 50.632916 50.632916 50.632916 50.632916 50.632916 50.632916 50.632916 50.632916 50.632916 50.632916 50.632916 50.632916 50.632916 50.632916 50.632916 50.632916 50.632916 50.632916 50.632916 50.632916 50.632916 50.632916 50.632916 50.632916 50.632916 50.632916 50.632916 50.632916 50.632916 50.632916 50.632916 50.632916 50.632916 50.632916 50.632916 50.632916 50.632916 50.632916 50.632916 50.632916 50.632916 50.632916 50.632916 50.632916 50.632916 50.632916 50.632916 50.632916 50.632916 50.632916 50.632916 50.632916 50.632916 50.632916 50.632916 50.632916 50.632916 50.632916 50.632916 50.632916 50.632916 50.632916 50.632916 50.632916 50.632916 50.632916 50.632916 50.632916 50.632916 50.632916 50.632916 50.632916 50.632916 50.632916 50.632916 50.632916 50.632916 50.632916 50.632916 50.632916 50.632916 50.632916 50.632916 50.632916 50.632916 50.632916 50.632916 50.632916 50.632916 50.632916 50.632916 50.632916 50.632916 50.632916 50.632916 50.632916 50.632916 50.632916 50.632916 50.632916 50.632916
22.438845 44.303802 44.303802 44.303802 44.303802 44.303802 44.303802 44.303802 44.303802 44.303802 44.303802 44.303802 44.303802 44.303802 44.303802 44.303802 44.303802 44.303802 44.303802 44.303802 44.303802 44.303802 44.303802 44.303802 44.303802 44.303802 44.303802 44.303802 44.303802 44.303802 44.303802 44.303802 44.303802 44.303802 44.303802 44.303802 44.303802 44.303802 44.303802 44.303802 44.303802 44.303802 44.303802 44.303802 44.303802 44.303802 44.303802 44.303802 44.303802 44.303802 44.303802 44.303802 44.303802 44.303802 44.303802 44.303802 44.303802 44.303802 44.303802 44.303802 44.303802 44.303802 44.303802 44.303802 44.303802 44.303802 44.303802 44.303802 44.303802 44.303802 44.303802 44.303802 44.303802 44.303802 44.303802 44.303802 44.303802 44.303802 44.303802 44.303802 44.303802 44.303802 44.303802 44.303802 44.303802 44.303802 44.303802 44.303802 44.303802 44.303802 44.303802 44.303802 44.303802 44.303802 44.303802 44.303802 44.303802 44.303802 44.303802 44.303802 44.303802 44.303802 44.303802 44.303802 44.303802 44.303802 44.303802 44.303802 44.303802 44.303802 44.303802 44.303802 44.303802 44.303802 44.303802 44.303802 44.303802 44.303802 44.303802 44.303802 44.303802 44.303802 44.303802 44.303802 44.303802 44.303802 44.303802 44.303802 44.303802 44.303802 44.303802 44.303802 44.303802 44.303802 44.303802 44.303802 44.303802 44.303802 44.303802 44.303802 44.303802 44.303802 44.303802 44.303802 44.303802 44.303802 44.303802 44.303802 44.303802 44.303802 44.303802 44.303802 44.303802 44.303802 44.303802 44.303802 44.303802 44.303802 44.303802 44.303802
19.633989 37.974687 37.974687 37.974687 37.974687 37.974687 37.974687 37.974687 37.974687 37.974687 37.974687 37.974687 37.974687 37.974687 37.974687 37.974687 37.974687 37.974687 37.974687 37.974687 37.974687 37.974687 37.974687 37.974687 37.974687 37.974687 37.974687 37.974687 37.974687 37.974687 37.974687 37.974687 37.974687 37.974687 37.974687 37.974687 37.974687 37.974687 37.974687 37.974687 37.974687 37.974687 37.974687 37.974687 37.974687 37.974687 37.974687 37.974687 37.974687 37.974687 37.974687 37.974687 37.974687 37.974687 37.974687 37.974687 37.974687 37.974687 37.974687 37.974687 37.974687 37.974687 37.974687 37.974687 37.974687 37.974687 37.974687 37.974687 37.974687 37.974687 37.974687 37.974687 37.974687 37.974687 37.974687 37.974687 37.974687 37.974687 37.974687 37.974687 37.974687 37.974687 37.974687 37.974687 37.974687 37.974687 37.974687 37.974687 37.974687 37.974687 37.974687 37.974687 37.974687 37.974687 37.974687 37.974687 37.974687 37.974687 37.974687 37.974687 37.974687 37.974687 37.974687 37.974687 37.974687 37.974687 37.974687 37.974687 37.974687 37.974687 37.974687 37.974687 37.974687 37.974687 37.974687 37.974687 37.974687 37.974687 37.974687 37.974687 37.974687 37.974687 37.974687 37.974687 37.974687 37.974687 37.974687 37.974687 37.974687 37.974687 37.974687 37.974687 37.974687 37.974687 37.974687 37.974687 37.974687 37.974687 37.974687 37.974687 37.974687 37.974687 37.974687 37.974687 37.974687 37.974687 37.974687 37.974687 37.974687 37.974687 37.974687 37.974687 37.974687 37.974687 37.974687 37.974687 37.974687 37.974687 37.974687 37.974687
16.829134 31.645573 31.645573 31.645573 31.645573 31.645573 31.645573 31.645573 31.645573 31.645573 31.645573 31.645573 31.645573 31.645573 31.645573 31.645573 31.645573 31.645573 31.645573 31.645573 31.645573 31.645573 31.645573 31.645573 31.645573 31.645573 31.645573 31.645573 31.645573 31.645573 31.645573 31.645573 31.645573 31.645573 31.645573 31.645573 31.645573 31.645573 31.645573 31.645573 31.645573 31.645573 31.645573 31.645573 31.645573 31.645573 31.645573 31.645573 31.645573 31.645573 31.645573 31.645573 31.645573 31.645573 31.645573 31.645573 31.645573 31.645573 31.645573 31.645573 31.645573 31.645573 31.645573 31.645573 31.645573 31.645573 31.645573 31.645573 31.645573 31.645573 31.645573 31.645573 31.645573 31.645573 31.645573 31.645573 31.645573 31.645573 31.645573 31.645573 31.645573 31.645573 31.645573 31.645573 31.645573 31.645573 31.645573 31.645573 31.645573 31.645573 31.645573 31.645573 31.645573 31.645573 31.645573 31.645573 31.645573 31.645573 31.645573 31.645573 31.645573 31.645573 31.645573 31.645573 31.645573 31.645573 31.645573 31.645573 31.645573 31.645573 31.645573 31.645573 31.645573 31.645573 31.645573 31.645573 31.645573 31.645573 31.645573 31.645573 31.645573 31.645573 31.645573 31.645573 31.645573 31.645573 31.645573 31.645573 31.645573 31.645573 31.645573 31.645573 31.645573 31.645573 31.645573 31.645573 31.645573 31.645573 31.645573 31.645573 31.645573 31.645573 31.645573 31.645573 31.645573 31.645573 31.645573 31.645573 31.645573 31.645573 31.645573 31.645573 31.645573 31.645573 31.645573 31.645573 31.645573 31.645573 31.645573 31.645573
14.024278 25.316458 25.316458 25.316458 25.316458 25.316458 25.316458 25.316458 25.316458 25.316458 25.316458 25.316458 25.316458 25.316458 25.316458 25.316458 25.316458 25.316458 25.316458 25.316458 25.316458 25.316458 25.316458 25.316458 25.316458 25.316458 25.316458 25.316458 25.316458 25.316458 25.316458 25.316458 25.316458 25.316458 25.316458 25.316458 25.316458 25.316458 25.316458 25.316458 25.316458 25.316458 25.316458 25.316458 25.316458 25.316458 25.316458 25.316458 25.316458 25.316458 25.316458 25.316458 25.316458 25.316458 25.316458 25.316458 25.316458 25.316458 25.316458 25.316458 25.316458 25.316458 25.316458 25.316458 25.316458 25.316458 25.316458 25.316458 25.316458 25.316458 25.316458 25.316458 25.316458 25.316458 25.316458 25.316458 25.316458 25.316458 25.316458 25.316458 25.316458 25.316458 25.316458 25.316458 25.316458 25.316458 25.316458 25.316458 25.316458 25.316458 25.316458 25.316458 25.316458 25.316458 25.316458 25.316458 25.316458 25.316458 25.316458 25.316458 25.316458 25.316458 25.316458 25.316458 25.316458 25.316458 25.316458 25.316458 25.316458 25.316458 25.316458 25.316458 25.316458 25.316458 25.316458 25.316458 25.316458 25.316458 25.316458 25.316458 25.316458 25.316458 25.316458 25.316458 25.316458 25.316458 25.316458 25.316458 25.316458 25.316458 25.316458 25.316458 25.316458 25.316458 25.316458 25.316458 25.316458 25.316458 25.316458 25.316458 25.316458 25.316458 25.316458 25.316458 25.316458 25.316458 25.316458 25.316458 25.316458 25.316458 25.316458 25.316458 25.316458 25.316458 25.316458 25.316458 25.316458 25.316458 25.316458 25.316458
11.219423 18.987344 18.987344 18.987344 18.987344 18.987344 18.987344 18.987344 18.987344 18.987344 18.987344 18.987344 18.987344 18.987344 18.987344 18.987344 18.987344 18.987344 18.987344 18.987344 18.987344 18.987344 18.987344 18.987344 18.987344 18.987344 18.987344 18.987344 18.987344 18.987344 18.987344 18.987344 18.987344 18.987344 18.987344 18.987344 18.987344 18.987344 18.987344 18.987344 18.987344 18.987344 18.987344 18.987344 18.987344 18.987344 18.987344 18.987344 18.987344 18.987344 18.987344 18.987344 18.987344 18.987344 18.987344 18.987344 18.987344 18.987344 18.987344 18.987344 18.987344 18.987344 18.987344 18.987344 18.987344 18.987344 18.987344 18.987344 18.987344 18.987344 18.987344 18.987344 18.987344 18.987344 18.987344 18.987344 18.987344 18.987344 18.987344 18.987344 18.987344 18.987344 18.987344 18.987344 18.987344 18.987344 18.987344 18.987344 18.987344 18.987344 18.987344 18.987344 18.987344 18.987344 18.987344 18.987344 18.987344 18.987344 18.987344 18.987344 18.987344 18.987344 18.987344 18.987344 18.987344 18.987344 18.987344 18.987344 18.987344 18.987344 18.987344 18.987344 18.987344 18.987344 18.987344 18.987344 18.987344 18.987344 18.987344 18.987344 18.987344 18.987344 18.987344 18.987344 18.987344 18.987344 18.987344 18.987344 18.987344 18.987344 18.987344 18.987344 18.987344 18.987344 18.987344 18.987344 18.987344 18.987344 18.987344 18.987344 18.987344 18.987344 18.987344 18.987344 18.987344 18.987344 18.987344 18.987344 18.987344 18.987344 18.987344 18.987344 18.987344 18.987344 18.987344 18.987344 18.987344 18.987344 18.987344 18.987344
8.414567 12.658229 12.658229 12.658229 12.658229 12.658229 12.658229 12.658229 12.658229 12.658229 12.658229 12.658229 12.658229 12.658229 12.658229 12.658229 12.658229 12.658229 12.658229 12.658229 12.658229 12.658229 12.658229 12.658229 12.658229 12.658229 12.658229 12.658229 12.658229 12.658229 12.658229 12.658229 12.658229 12.658229 12.658229 12.658229 12.658229 12.658229 12.658229 12.658229 12.658229 12.658229 12.658229 12.658229 12.658229 12.658229 12.658229 12.658229 12.658229 12.658229 12.658229 12.658229 12.658229 12.658229 12.658229 12.658229 12.658229 12.658229 12.658229 12.658229 12.658229 12.658229 12.658229 12.658229 12.658229 12.658229 12.658229 12.658229 12.658229 12.658229 12.658229 12.658229 12.658229 12.658229 12.658229 12.658229 12.658229 12.658229 12.658229 12.658229 12.658229 12.658229 12.658229 12.658229 12.658229 12.658229 12.658229 12.658229 12.658229 12.658229 12.658229 12.658229 12.658229 12.658229 12.658229 12.658229 12.658229 12.658229 12.658229 12.658229 12.658229 12.658229 12.658229 12.658229 12.658229 12.658229 12.658229 12.658229 12.658229 12.658229 12.658229 12.658229 12.658229 12.658229 12.658229 12.658229 12.658229 12.658229 12.658229 12.658229 12.658229 12.658229 12.658229 12.658229 12.658229 12.658229 12.658229 12.658229 12.658229 12.658229 12.658229 12.658229 12.658229 12.658229 12.658229 12.658229 12.658229 12.658229 12.658229 12.658229 12.658229 12.658229 12.658229 12.658229 12.658229 12.658229 12.658229 12.658229 12.658229 12.658229 12.658229 12.658229 12.658229 12.658229 12.658229 12.658229 12.658229 12.658229 12.658229 12.658229
